# .PCD v0.7 - Point Cloud Data file format
VERSION 0.7
FIELDS x y z
SIZE 4 4 4
TYPE F F F
COUNT 1 1 1
WIDTH 1439
HEIGHT 1
VIEWPOINT 0 0 0 1 0 0 0
POINTS 1439
DATA ascii
0.11234479 -0.25466731 0.55300003
0.1134546 -0.25328574 0.55000001
0.11517388 -0.25328574 0.55000001
0.11646811 -0.25236472 0.54800004
0.11753415 -0.25098315 0.54500002
0.1192378 -0.25098315 0.54500002
0.12049765 -0.25006211 0.54300004
0.12151993 -0.24868055 0.54000002
0.12320796 -0.24868055 0.54000002
0.12466469 -0.24822004 0.53900003
0.12611517 -0.24775952 0.53800005
0.12779695 -0.24775952 0.53800005
0.12899739 -0.24683847 0.53600001
0.1304291 -0.24637796 0.53500003
0.13210151 -0.24637796 0.53500003
0.13377389 -0.24637796 0.53500003
0.13519311 -0.24591744 0.53400004
0.13686238 -0.24591744 0.53400004
0.13853164 -0.24591744 0.53400004
0.13993837 -0.24545693 0.53300005
0.14160453 -0.24545693 0.53300005
0.14327066 -0.24545693 0.53300005
0.14466487 -0.24499638 0.53200001
0.14605282 -0.24453588 0.53100002
0.14771272 -0.24453588 0.53100002
0.1490913 -0.24407536 0.53000003
0.15017919 -0.2431543 0.528
0.1518297 -0.2431543 0.528
0.15348022 -0.2431543 0.528
0.15454312 -0.24223328 0.52600002
0.15618737 -0.24223328 0.52600002
0.15753159 -0.24177277 0.52500004
0.15917273 -0.24177277 0.52500004
0.16081385 -0.24177277 0.52500004
0.16214556 -0.24131225 0.52400005
0.16347098 -0.24085172 0.523
0.16510586 -0.24085172 0.523
0.16610311 -0.23993069 0.52100003
0.16740981 -0.23947017 0.52000004
0.16903532 -0.23947017 0.52000004
0.17033263 -0.23900966 0.51900005
0.171955 -0.23900966 0.51900005
0.17357737 -0.23900966 0.51900005
0.17486218 -0.23854911 0.51800001
0.28765339 -0.23808861 0.51700002
0.28926951 -0.23808861 0.51700002
0.2914483 -0.23854911 0.51800001
0.29363334 -0.23900966 0.51900005
0.29525572 -0.23900966 0.51900005
0.2968781 -0.23900966 0.51900005
0.2990756 -0.23947017 0.52000004
0.078754708 -0.27443615 0.60000002
0.080630288 -0.27443615 0.60000002
0.081680819 -0.2716918 0.59400004
0.083256371 -0.27077699 0.59200001
0.085106939 -0.27077699 0.59200001
0.086369962 -0.26894742 0.588
0.088208027 -0.26894742 0.588
0.090946585 -0.26620305 0.58200002
0.092128329 -0.26437348 0.57800001
0.093935132 -0.26437348 0.57800001
0.09507937 -0.26254392 0.574
0.096198604 -0.26071435 0.57000005
0.09798041 -0.26071435 0.57000005
0.09958718 -0.26025695 0.56900001
0.10065327 -0.25842735 0.565
0.10241944 -0.25842735 0.565
0.10381681 -0.25751257 0.56300002
0.1052017 -0.25659782 0.56100005
0.10695536 -0.25659782 0.56100005
0.10832147 -0.255683 0.55900002
0.10947818 -0.25431085 0.55600005
0.11121622 -0.25431085 0.55600005
0.11234479 -0.25293866 0.55300003
0.1134546 -0.25156647 0.55000001
0.11517388 -0.25156647 0.55000001
0.11646811 -0.25065169 0.54800004
0.11753415 -0.2492795 0.54500002
0.1192378 -0.2492795 0.54500002
0.12049765 -0.24836472 0.54300004
0.12151993 -0.24699253 0.54000002
0.12320796 -0.24699253 0.54000002
0.12466469 -0.24653514 0.53900003
0.12588075 -0.24562034 0.537
0.12755939 -0.24562034 0.537
0.12899739 -0.24516295 0.53600001
0.1304291 -0.24470556 0.53500003
0.13210151 -0.24470556 0.53500003
0.13377389 -0.24470556 0.53500003
0.13544628 -0.24470556 0.53500003
0.13711867 -0.24470556 0.53500003
0.13853164 -0.24424818 0.53400004
0.13993837 -0.24379079 0.53300005
0.14160453 -0.24379079 0.53300005
0.14327066 -0.24379079 0.53300005
0.14466487 -0.24333337 0.53200001
0.14605282 -0.24287599 0.53100002
0.14771272 -0.24287599 0.53100002
0.1490913 -0.2424186 0.53000003
0.15017919 -0.24150379 0.528
0.1518297 -0.24150379 0.528
0.15348022 -0.24150379 0.528
0.15483692 -0.24104641 0.52700001
0.15648431 -0.24104641 0.52700001
0.15783165 -0.24058902 0.52600002
0.15917273 -0.24013163 0.52500004
0.16081385 -0.24013163 0.52500004
0.16214556 -0.23967424 0.52400005
0.16347098 -0.23921683 0.523
0.16510586 -0.23921683 0.523
0.16610311 -0.23830205 0.52100003
0.16740981 -0.23784466 0.52000004
0.16903532 -0.23784466 0.52000004
0.17066081 -0.23784466 0.52000004
0.171955 -0.23738728 0.51900005
0.17357737 -0.23738728 0.51900005
0.17486218 -0.23692986 0.51800001
0.17614074 -0.23647247 0.51700002
0.282258 -0.2360151 0.51600003
0.28603727 -0.23647247 0.51700002
0.28765339 -0.23647247 0.51700002
0.28926951 -0.23647247 0.51700002
0.2914483 -0.23692986 0.51800001
0.29363334 -0.23738728 0.51900005
0.29525572 -0.23738728 0.51900005
0.2968781 -0.23738728 0.51900005
0.2990756 -0.23784466 0.52000004
0.081680819 -0.26983497 0.59400004
0.082975104 -0.26801789 0.59000003
0.084819421 -0.26801789 0.59000003
0.086223073 -0.26665509 0.58700001
0.088058017 -0.26665509 0.58700001
0.090790316 -0.26392949 0.58100003
0.092128329 -0.26256669 0.57800001
0.093935132 -0.26256669 0.57800001
0.09507937 -0.26074961 0.574
0.096198604 -0.25893256 0.57000005
0.09798041 -0.25893256 0.57000005
0.099412166 -0.25802401 0.56800002
0.10065327 -0.25666118 0.565
0.10241944 -0.25666118 0.565
0.10381681 -0.25575265 0.56300002
0.1052017 -0.25484413 0.56100005
0.10695536 -0.25484413 0.56100005
0.10832147 -0.25393561 0.55900002
0.10947818 -0.2525728 0.55600005
0.11121622 -0.2525728 0.55600005
0.11234479 -0.25121 0.55300003
0.1134546 -0.24984717 0.55000001
0.11517388 -0.24984717 0.55000001
0.11646811 -0.24893865 0.54800004
0.11753415 -0.24757585 0.54500002
0.1192378 -0.24757585 0.54500002
0.12049765 -0.24666733 0.54300004
0.12151993 -0.24530451 0.54000002
0.12320796 -0.24530451 0.54000002
0.12466469 -0.24485025 0.53900003
0.12588075 -0.24394169 0.537
0.12755939 -0.24394169 0.537
0.12923804 -0.24394169 0.537
0.1306729 -0.24348743 0.53600001
0.13234842 -0.24348743 0.53600001
0.13377389 -0.24303317 0.53500003
0.13544628 -0.24303317 0.53500003
0.13711867 -0.24303317 0.53500003
0.13879107 -0.24303317 0.53500003
0.14020091 -0.24257891 0.53400004
0.1418702 -0.24257891 0.53400004
0.14327066 -0.24212465 0.53300005
0.14466487 -0.24167036 0.53200001
0.14605282 -0.24121609 0.53100002
0.14771272 -0.24121609 0.53100002
0.1490913 -0.24076183 0.53000003
0.15017919 -0.23985329 0.528
0.1518297 -0.23985329 0.528
0.15348022 -0.23985329 0.528
0.15483692 -0.23939903 0.52700001
0.15648431 -0.23939903 0.52700001
0.15783165 -0.23894477 0.52600002
0.15917273 -0.23849051 0.52500004
0.16081385 -0.23849051 0.52500004
0.16214556 -0.23803625 0.52400005
0.16347098 -0.23758195 0.523
0.16510586 -0.23758195 0.523
0.16610311 -0.23667343 0.52100003
0.16773175 -0.23667343 0.52100003
0.16936037 -0.23667343 0.52100003
0.17066081 -0.23621917 0.52000004
0.171955 -0.23576491 0.51900005
0.17357737 -0.23576491 0.51900005
0.17486218 -0.23531061 0.51800001
0.17614074 -0.23485635 0.51700002
0.2768814 -0.23394783 0.51500005
0.28010112 -0.23394783 0.51500005
0.282258 -0.23440209 0.51600003
0.283871 -0.23440209 0.51600003
0.28603727 -0.23485635 0.51700002
0.28765339 -0.23485635 0.51700002
0.28926951 -0.23485635 0.51700002
0.2914483 -0.23531061 0.51800001
0.29363334 -0.23576491 0.51900005
0.29525572 -0.23576491 0.51900005
0.2968781 -0.23576491 0.51900005
0.2990756 -0.23621917 0.52000004
0.082975104 -0.26617357 0.59000003
0.084819421 -0.26617357 0.59000003
0.086223073 -0.26482013 0.58700001
0.088058017 -0.26482013 0.58700001
0.090790316 -0.2621133 0.58100003
0.092128329 -0.26075986 0.57800001
0.093935132 -0.26075986 0.57800001
0.09507937 -0.2589553 0.574
0.096198604 -0.25715074 0.57000005
0.09798041 -0.25715074 0.57000005
0.099412166 -0.25624844 0.56800002
0.10065327 -0.25489503 0.565
0.10241944 -0.25489503 0.565
0.10381681 -0.25399274 0.56300002
0.1052017 -0.25309047 0.56100005
0.10695536 -0.25309047 0.56100005
0.10832147 -0.25218818 0.55900002
0.10947818 -0.25083476 0.55600005
0.11121622 -0.25083476 0.55600005
0.11234479 -0.24948134 0.55300003
0.11407346 -0.24948134 0.55300003
0.12049765 -0.24496992 0.54300004
0.12151993 -0.24361649 0.54000002
0.12320796 -0.24361649 0.54000002
0.12466469 -0.24316536 0.53900003
0.12588075 -0.24226305 0.537
0.12755939 -0.24226305 0.537
0.12923804 -0.24226305 0.537
0.1306729 -0.24181192 0.53600001
0.13234842 -0.24181192 0.53600001
0.13377389 -0.24136078 0.53500003
0.13544628 -0.24136078 0.53500003
0.13711867 -0.24136078 0.53500003
0.13879107 -0.24136078 0.53500003
0.14020091 -0.24090965 0.53400004
0.1418702 -0.24090965 0.53400004
0.14327066 -0.2404585 0.53300005
0.14466487 -0.24000734 0.53200001
0.14605282 -0.23955621 0.53100002
0.14771272 -0.23955621 0.53100002
0.1490913 -0.23910508 0.53000003
0.15017919 -0.23820278 0.528
0.1518297 -0.23820278 0.528
0.15348022 -0.23820278 0.528
0.15483692 -0.23775165 0.52700001
0.15648431 -0.23775165 0.52700001
0.15783165 -0.2373005 0.52600002
0.15917273 -0.23684937 0.52500004
0.16081385 -0.23684937 0.52500004
0.16214556 -0.23639823 0.52400005
0.16347098 -0.23594707 0.523
0.16510586 -0.23594707 0.523
0.16610311 -0.23504479 0.52100003
0.16773175 -0.23504479 0.52100003
0.16936037 -0.23504479 0.52100003
0.17066081 -0.23459366 0.52000004
0.171955 -0.23414253 0.51900005
0.17357737 -0.23414253 0.51900005
0.17486218 -0.23369136 0.51800001
0.17614074 -0.23324023 0.51700002
0.2768814 -0.23233795 0.51500005
0.27849126 -0.23233795 0.51500005
0.28064501 -0.2327891 0.51600003
0.282258 -0.2327891 0.51600003
0.283871 -0.2327891 0.51600003
0.28603727 -0.23324023 0.51700002
0.28765339 -0.23324023 0.51700002
0.28926951 -0.23324023 0.51700002
0.2914483 -0.23369136 0.51800001
0.29363334 -0.23414253 0.51900005
0.29582462 -0.23459366 0.52000004
0.2974501 -0.23459366 0.52000004
0.2990756 -0.23459366 0.52000004
0.082975104 -0.26432925 0.59000003
0.084819421 -0.26432925 0.59000003
0.086223073 -0.2629852 0.58700001
0.087457962 -0.26119313 0.583
0.089280412 -0.26119313 0.583
0.090634055 -0.2598491 0.58000004
0.091968939 -0.25850505 0.57700002
0.09377262 -0.25850505 0.57700002
0.09507937 -0.25716099 0.574
0.096198604 -0.25536895 0.57000005
0.09798041 -0.25536895 0.57000005
0.099412166 -0.25447291 0.56800002
0.10065327 -0.25312886 0.565
0.10241944 -0.25312886 0.565
0.10381681 -0.25223282 0.56300002
0.1052017 -0.25133681 0.56100005
0.10695536 -0.25133681 0.56100005
0.10832147 -0.25044075 0.55900002
0.10947818 -0.24909674 0.55600005
0.11121622 -0.24909674 0.55600005
0.11234479 -0.24775268 0.55300003
0.1134546 -0.24640861 0.55000001
0.11517388 -0.24640861 0.55000001
0.11689316 -0.24640861 0.55000001
0.11753415 -0.24416853 0.54500002
0.1192378 -0.24416853 0.54500002
0.12027574 -0.24282451 0.54200006
0.12151993 -0.24192847 0.54000002
0.12320796 -0.24192847 0.54000002
0.12466469 -0.24148045 0.53900003
0.12611517 -0.24103245 0.53800005
0.12779695 -0.24103245 0.53800005
0.12923804 -0.2405844 0.537
0.1306729 -0.2401364 0.53600001
0.13234842 -0.2401364 0.53600001
0.13377389 -0.2396884 0.53500003
0.13544628 -0.2396884 0.53500003
0.13711867 -0.2396884 0.53500003
0.13879107 -0.2396884 0.53500003
0.14020091 -0.23924038 0.53400004
0.1418702 -0.23924038 0.53400004
0.14327066 -0.23879237 0.53300005
0.14466487 -0.23834433 0.53200001
0.14605282 -0.23789632 0.53100002
0.14771272 -0.23789632 0.53100002
0.1490913 -0.23744832 0.53000003
0.15017919 -0.23655227 0.528
0.1518297 -0.23655227 0.528
0.15348022 -0.23655227 0.528
0.15483692 -0.23610425 0.52700001
0.15648431 -0.23610425 0.52700001
0.15783165 -0.23565625 0.52600002
0.15917273 -0.23520824 0.52500004
0.16081385 -0.23520824 0.52500004
0.16214556 -0.23476022 0.52400005
0.16347098 -0.23431219 0.523
0.16510586 -0.23431219 0.523
0.16642193 -0.23386419 0.52200001
0.16773175 -0.23341617 0.52100003
0.16936037 -0.23341617 0.52100003
0.17066081 -0.23296817 0.52000004
0.171955 -0.23252015 0.51900005
0.17357737 -0.23252015 0.51900005
0.17486218 -0.23207211 0.51800001
0.17614074 -0.23162411 0.51700002
0.27473697 -0.23028004 0.514
0.2768814 -0.23072809 0.51500005
0.27849126 -0.23072809 0.51500005
0.28064501 -0.23117609 0.51600003
0.282258 -0.23117609 0.51600003
0.283871 -0.23117609 0.51600003
0.28603727 -0.23162411 0.51700002
0.28765339 -0.23162411 0.51700002
0.28926951 -0.23162411 0.51700002
0.2914483 -0.23207211 0.51800001
0.29363334 -0.23252015 0.51900005
0.29582462 -0.23296817 0.52000004
0.2974501 -0.23296817 0.52000004
0.2990756 -0.23296817 0.52000004
0.087457962 -0.25937068 0.583
0.089280412 -0.25937068 0.583
0.090634055 -0.25803605 0.58000004
0.091968939 -0.25670135 0.57700002
0.09377262 -0.25670135 0.57700002
0.09507937 -0.25536668 0.574
0.096198604 -0.25358716 0.57000005
0.09798041 -0.25358716 0.57000005
0.099412166 -0.25269735 0.56800002
0.10065327 -0.25136268 0.565
0.10241944 -0.25136268 0.565
0.10381681 -0.2504729 0.56300002
0.10501416 -0.24913824 0.56
0.1067647 -0.24913824 0.56
0.10832147 -0.24869335 0.55900002
0.10947818 -0.24735869 0.55600005
0.11121622 -0.24735869 0.55600005
0.11234479 -0.24602401 0.55300003
0.1134546 -0.24468933 0.55000001
0.11517388 -0.24468933 0.55000001
0.11625557 -0.24335468 0.54700005
0.11753415 -0.24246489 0.54500002
0.1192378 -0.24246489 0.54500002
0.12027574 -0.24113023 0.54200006
0.12151993 -0.24024044 0.54000002
0.12320796 -0.24024044 0.54000002
0.12466469 -0.23979557 0.53900003
0.12611517 -0.23935068 0.53800005
0.12779695 -0.23935068 0.53800005
0.12923804 -0.23890577 0.537
0.1306729 -0.23846088 0.53600001
0.13234842 -0.23846088 0.53600001
0.13402393 -0.23846088 0.53600001
0.13544628 -0.23801599 0.53500003
0.13711867 -0.23801599 0.53500003
0.13879107 -0.23801599 0.53500003
0.14020091 -0.23757112 0.53400004
0.1418702 -0.23757112 0.53400004
0.14327066 -0.23712623 0.53300005
0.14466487 -0.23668133 0.53200001
0.14605282 -0.23623644 0.53100002
0.14771272 -0.23623644 0.53100002
0.1490913 -0.23579155 0.53000003
0.15017919 -0.23490176 0.528
0.1518297 -0.23490176 0.528
0.15348022 -0.23490176 0.528
0.15483692 -0.23445687 0.52700001
0.15648431 -0.23445687 0.52700001
0.15783165 -0.23401199 0.52600002
0.15917273 -0.2335671 0.52500004
0.16081385 -0.2335671 0.52500004
0.16214556 -0.23312221 0.52400005
0.16347098 -0.23267731 0.523
0.16510586 -0.23267731 0.523
0.16642193 -0.23223242 0.52200001
0.16773175 -0.23178755 0.52100003
0.16936037 -0.23178755 0.52100003
0.17066081 -0.23134266 0.52000004
0.171955 -0.23089777 0.51900005
0.17357737 -0.23089777 0.51900005
0.17486218 -0.23045287 0.51800001
0.17614074 -0.23000798 0.51700002
0.27473697 -0.22867331 0.514
0.2768814 -0.22911821 0.51500005
0.27849126 -0.22911821 0.51500005
0.28064501 -0.2295631 0.51600003
0.282258 -0.2295631 0.51600003
0.283871 -0.2295631 0.51600003
0.28603727 -0.23000798 0.51700002
0.28820977 -0.23045287 0.51800001
0.28982902 -0.23045287 0.51800001
0.2914483 -0.23045287 0.51800001
0.29363334 -0.23089777 0.51900005
0.29582462 -0.23134266 0.52000004
0.2974501 -0.23134266 0.52000004
0.2990756 -0.23134266 0.52000004
0.087457962 -0.25754824 0.583
0.089280412 -0.25754824 0.583
0.090634055 -0.25622299 0.58000004
0.091968939 -0.25489768 0.57700002
0.09377262 -0.25489768 0.57700002
0.09507937 -0.25357237 0.574
0.096198604 -0.25180534 0.57000005
0.09798041 -0.25180534 0.57000005
0.099412166 -0.25092182 0.56800002
0.10065327 -0.24959651 0.565
0.10241944 -0.24959651 0.565
0.10381681 -0.24871299 0.56300002
0.10501416 -0.24738769 0.56
0.1067647 -0.24738769 0.56
0.10832147 -0.24694593 0.55900002
0.10947818 -0.24562065 0.55600005
0.11121622 -0.24562065 0.55600005
0.11234479 -0.24429536 0.55300003
0.1134546 -0.24297005 0.55000001
0.11517388 -0.24297005 0.55000001
0.11625557 -0.24164478 0.54700005
0.11753415 -0.24076124 0.54500002
0.1192378 -0.24076124 0.54500002
0.12027574 -0.23943597 0.54200006
0.12151993 -0.23855242 0.54000002
0.12320796 -0.23855242 0.54000002
0.12466469 -0.23811066 0.53900003
0.12634958 -0.23811066 0.53900003
0.12803449 -0.23811066 0.53900003
0.12923804 -0.23722713 0.537
0.13091668 -0.23722713 0.537
0.13259533 -0.23722713 0.537
0.13402393 -0.23678537 0.53600001
0.13544628 -0.23634361 0.53500003
0.13711867 -0.23634361 0.53500003
0.13879107 -0.23634361 0.53500003
0.13993837 -0.23546009 0.53300005
0.14160453 -0.23546009 0.53300005
0.14300185 -0.23501831 0.53200001
0.14439294 -0.23457655 0.53100002
0.14577778 -0.23413479 0.53000003
0.14743455 -0.23413479 0.53000003
0.1490913 -0.23413479 0.53000003
0.15017919 -0.23325124 0.528
0.1518297 -0.23325124 0.528
0.15348022 -0.23325124 0.528
0.15483692 -0.23280948 0.52700001
0.15648431 -0.23280948 0.52700001
0.15783165 -0.23236772 0.52600002
0.15917273 -0.23192598 0.52500004
0.16081385 -0.23192598 0.52500004
0.16214556 -0.23148422 0.52400005
0.16347098 -0.23104243 0.523
0.16510586 -0.23104243 0.523
0.16642193 -0.23060067 0.52200001
0.16773175 -0.23015891 0.52100003
0.16936037 -0.23015891 0.52100003
0.17066081 -0.22971715 0.52000004
0.171955 -0.22927541 0.51900005
0.17357737 -0.22927541 0.51900005
0.17486218 -0.22883362 0.51800001
0.17614074 -0.22839186 0.51700002
0.2768814 -0.22750834 0.51500005
0.27849126 -0.22750834 0.51500005
0.28064501 -0.2279501 0.51600003
0.282258 -0.2279501 0.51600003
0.283871 -0.2279501 0.51600003
0.28603727 -0.22839186 0.51700002
0.28820977 -0.22883362 0.51800001
0.28982902 -0.22883362 0.51800001
0.29201096 -0.22927541 0.51900005
0.29363334 -0.22927541 0.51900005
0.29582462 -0.22971715 0.52000004
0.2974501 -0.22971715 0.52000004
0.2990756 -0.22971715 0.52000004
0.082834467 -0.25835767 0.58900005
0.084675662 -0.25835767 0.58900005
0.085929304 -0.25660312 0.58500004
0.087307952 -0.2552872 0.58200002
0.089127272 -0.2552872 0.58200002
0.090634055 -0.25440991 0.58000004
0.091968939 -0.25309399 0.57700002
0.09377262 -0.25309399 0.57700002
0.09507937 -0.25177807 0.574
0.096198604 -0.25002354 0.57000005
0.09798041 -0.25002354 0.57000005
0.099412166 -0.24914625 0.56800002
0.10065327 -0.24783033 0.565
0.10241944 -0.24783033 0.565
0.10363242 -0.24651444 0.56200004
0.10501416 -0.24563715 0.56
0.1067647 -0.24563715 0.56
0.10812769 -0.24475989 0.55800003
0.10928127 -0.24344397 0.55500001
0.11101618 -0.24344397 0.55500001
0.11214163 -0.24212806 0.55200005
0.1134546 -0.24125077 0.55000001
0.11517388 -0.24125077 0.55000001
0.11625557 -0.23993488 0.54700005
0.11753415 -0.23905759 0.54500002
0.1192378 -0.23905759 0.54500002
0.12027574 -0.23774169 0.54200006
0.12151993 -0.2368644 0.54000002
0.12320796 -0.2368644 0.54000002
0.12466469 -0.23642577 0.53900003
0.12634958 -0.23642577 0.53900003
0.12803449 -0.23642577 0.53900003
0.12923804 -0.23554848 0.537
0.13091668 -0.23554848 0.537
0.13259533 -0.23554848 0.537
0.13402393 -0.23510985 0.53600001
0.13544628 -0.23467122 0.53500003
0.13711867 -0.23467122 0.53500003
0.13879107 -0.23467122 0.53500003
0.13993837 -0.23379394 0.53300005
0.14160453 -0.23379394 0.53300005
0.14300185 -0.2333553 0.53200001
0.14439294 -0.23291665 0.53100002
0.14577778 -0.23247802 0.53000003
0.14743455 -0.23247802 0.53000003
0.1490913 -0.23247802 0.53000003
0.15017919 -0.23160073 0.528
0.1518297 -0.23160073 0.528
0.15318954 -0.2311621 0.52700001
0.15483692 -0.2311621 0.52700001
0.15648431 -0.2311621 0.52700001
0.15783165 -0.23072347 0.52600002
0.15917273 -0.23028484 0.52500004
0.16081385 -0.23028484 0.52500004
0.16214556 -0.22984621 0.52400005
0.16378357 -0.22984621 0.52400005
0.16542156 -0.22984621 0.52400005
0.16674075 -0.22940755 0.523
0.16773175 -0.22853029 0.52100003
0.16936037 -0.22853029 0.52100003
0.17066081 -0.22809166 0.52000004
0.171955 -0.22765303 0.51900005
0.17357737 -0.22765303 0.51900005
0.17486218 -0.22721437 0.51800001
0.17614074 -0.22677574 0.51700002
0.17775686 -0.22677574 0.51700002
0.27849126 -0.22589847 0.51500005
0.28064501 -0.22633711 0.51600003
0.282258 -0.22633711 0.51600003
0.283871 -0.22633711 0.51600003
0.28603727 -0.22677574 0.51700002
0.28820977 -0.22721437 0.51800001
0.28982902 -0.22721437 0.51800001
0.29201096 -0.22765303 0.51900005
0.29363334 -0.22765303 0.51900005
0.29582462 -0.22809166 0.52000004
0.2974501 -0.22809166 0.52000004
0.2990756 -0.22809166 0.52000004
0.082834467 -0.25651646 0.58900005
0.084675662 -0.25651646 0.58900005
0.085929304 -0.25477442 0.58500004
0.087307952 -0.25346789 0.58200002
0.089127272 -0.25346789 0.58200002
0.090634055 -0.25259686 0.58000004
0.092128329 -0.25172582 0.57800001
0.093935132 -0.25172582 0.57800001
0.09507937 -0.24998377 0.574
0.096198604 -0.24824175 0.57000005
0.09798041 -0.24824175 0.57000005
0.099412166 -0.24737071 0.56800002
0.10065327 -0.24606417 0.565
0.10241944 -0.24606417 0.565
0.10363242 -0.24475765 0.56200004
0.10501416 -0.2438866 0.56
0.1067647 -0.2438866 0.56
0.10793392 -0.24258009 0.55700004
0.10928127 -0.24170905 0.55500001
0.11101618 -0.24170905 0.55500001
0.11214163 -0.24040253 0.55200005
0.1134546 -0.23953149 0.55000001
0.11517388 -0.23953149 0.55000001
0.11625557 -0.23822497 0.54700005
0.11753415 -0.23735394 0.54500002
0.1192378 -0.23735394 0.54500002
0.12049765 -0.23648292 0.54300004
0.12174497 -0.23561189 0.54100001
0.12343612 -0.23561189 0.54100001
0.12489597 -0.23517638 0.54000002
0.12634958 -0.23474087 0.53900003
0.12803449 -0.23474087 0.53900003
0.12947872 -0.23430537 0.53800005
0.13091668 -0.23386984 0.537
0.13259533 -0.23386984 0.537
0.13402393 -0.23343433 0.53600001
0.13544628 -0.23299882 0.53500003
0.13711867 -0.23299882 0.53500003
0.13879107 -0.23299882 0.53500003
0.13993837 -0.23212782 0.53300005
0.14133884 -0.23169228 0.53200001
0.14300185 -0.23169228 0.53200001
0.14439294 -0.23125677 0.53100002
0.14577778 -0.23082127 0.53000003
0.14743455 -0.23082127 0.53000003
0.14881 -0.23038577 0.52900004
0.15017919 -0.22995023 0.528
0.1518297 -0.22995023 0.528
0.15318954 -0.22951472 0.52700001
0.15483692 -0.22951472 0.52700001
0.15648431 -0.22951472 0.52700001
0.15783165 -0.22907922 0.52600002
0.15917273 -0.22864372 0.52500004
0.16081385 -0.22864372 0.52500004
0.16245499 -0.22864372 0.52500004
0.16378357 -0.2282082 0.52400005
0.16542156 -0.2282082 0.52400005
0.16674075 -0.22777267 0.523
0.16773175 -0.22690167 0.52100003
0.16936037 -0.22690167 0.52100003
0.17066081 -0.22646615 0.52000004
0.171955 -0.22603065 0.51900005
0.17357737 -0.22603065 0.51900005
0.17486218 -0.22559512 0.51800001
0.17648143 -0.22559512 0.51800001
0.17775686 -0.22515962 0.51700002
0.28010112 -0.2242886 0.51500005
0.282258 -0.2247241 0.51600003
0.283871 -0.2247241 0.51600003
0.28603727 -0.22515962 0.51700002
0.28820977 -0.22559512 0.51800001
0.29038855 -0.22603065 0.51900005
0.29201096 -0.22603065 0.51900005
0.29363334 -0.22603065 0.51900005
0.29582462 -0.22646615 0.52000004
0.2974501 -0.22646615 0.52000004
0.2990756 -0.22646615 0.52000004
0.082975104 -0.25510764 0.59000003
0.084819421 -0.25510764 0.59000003
0.085929304 -0.25294572 0.58500004
0.087457962 -0.25208092 0.583
0.089280412 -0.25208092 0.583
0.090634055 -0.25078377 0.58000004
0.092128329 -0.249919 0.57800001
0.093935132 -0.249919 0.57800001
0.09507937 -0.24818945 0.574
0.096198604 -0.24645993 0.57000005
0.09798041 -0.24645993 0.57000005
0.099412166 -0.24559514 0.56800002
0.10065327 -0.24429798 0.565
0.10241944 -0.24429798 0.565
0.10363242 -0.24300084 0.56200004
0.10501416 -0.24213605 0.56
0.1067647 -0.24213605 0.56
0.10793392 -0.24083892 0.55700004
0.10928127 -0.23997413 0.55500001
0.11101618 -0.23997413 0.55500001
0.11214163 -0.23867698 0.55200005
0.1134546 -0.23781219 0.55000001
0.11517388 -0.23781219 0.55000001
0.11625557 -0.23651506 0.54700005
0.11753415 -0.23565027 0.54500002
0.1192378 -0.23565027 0.54500002
0.12049765 -0.23478551 0.54300004
0.12174497 -0.23392072 0.54100001
0.12343612 -0.23392072 0.54100001
0.12489597 -0.23348834 0.54000002
0.12634958 -0.23305596 0.53900003
0.12803449 -0.23305596 0.53900003
0.12971939 -0.23305596 0.53900003
0.13091668 -0.23219118 0.537
0.13259533 -0.23219118 0.537
0.13402393 -0.2317588 0.53600001
0.13569945 -0.2317588 0.53600001
0.13737497 -0.2317588 0.53600001
0.13879107 -0.23132642 0.53500003
0.13993837 -0.23046166 0.53300005
0.14133884 -0.23002926 0.53200001
0.14300185 -0.23002926 0.53200001
0.14439294 -0.22959687 0.53100002
0.14577778 -0.22916448 0.53000003
0.14743455 -0.22916448 0.53000003
0.14881 -0.22873211 0.52900004
0.15017919 -0.22829971 0.528
0.1518297 -0.22829971 0.528
0.15318954 -0.22786732 0.52700001
0.15483692 -0.22786732 0.52700001
0.15648431 -0.22786732 0.52700001
0.15783165 -0.22743495 0.52600002
0.15917273 -0.22700256 0.52500004
0.16081385 -0.22700256 0.52500004
0.16245499 -0.22700256 0.52500004
0.16378357 -0.22657017 0.52400005
0.16542156 -0.22657017 0.52400005
0.16674075 -0.22613777 0.523
0.16773175 -0.22527301 0.52100003
0.16936037 -0.22527301 0.52100003
0.17066081 -0.22484064 0.52000004
0.171955 -0.22440825 0.51900005
0.17357737 -0.22440825 0.51900005
0.17486218 -0.22397585 0.51800001
0.17648143 -0.22397585 0.51800001
0.17775686 -0.22354347 0.51700002
0.28010112 -0.22267871 0.51500005
0.282258 -0.22311109 0.51600003
0.283871 -0.22311109 0.51600003
0.28603727 -0.22354347 0.51700002
0.28820977 -0.22397585 0.51800001
0.29038855 -0.22440825 0.51900005
0.29201096 -0.22440825 0.51900005
0.29363334 -0.22440825 0.51900005
0.29582462 -0.22484064 0.52000004
0.2974501 -0.22484064 0.52000004
0.29965076 -0.22527301 0.52100003
0.082975104 -0.25326332 0.59000003
0.084819421 -0.25326332 0.59000003
0.086076193 -0.25154626 0.58600003
0.08760798 -0.25068778 0.58400005
0.089433558 -0.25068778 0.58400005
0.090790316 -0.24939997 0.58100003
0.092128329 -0.24811219 0.57800001
0.093935132 -0.24811219 0.57800001
0.09507937 -0.24639514 0.574
0.096198604 -0.24467812 0.57000005
0.09798041 -0.24467812 0.57000005
0.099412166 -0.24381959 0.56800002
0.10065327 -0.24253181 0.565
0.10241944 -0.24253181 0.565
0.10363242 -0.24124405 0.56200004
0.10482664 -0.23995626 0.55900002
0.10657405 -0.23995626 0.55900002
0.10793392 -0.23909774 0.55700004
0.10908437 -0.23780996 0.55400002
0.11081615 -0.23780996 0.55400002
0.11214163 -0.23695146 0.55200005
0.1134546 -0.23609291 0.55000001
0.11517388 -0.23609291 0.55000001
0.11625557 -0.23480515 0.54700005
0.11753415 -0.23394662 0.54500002
0.1192378 -0.23394662 0.54500002
0.12049765 -0.23308811 0.54300004
0.12174497 -0.23222958 0.54100001
0.12343612 -0.23222958 0.54100001
0.12489597 -0.23180032 0.54000002
0.12634958 -0.23137106 0.53900003
0.12803449 -0.23137106 0.53900003
0.12971939 -0.23137106 0.53900003
0.13091668 -0.23051253 0.537
0.13259533 -0.23051253 0.537
0.13402393 -0.23008327 0.53600001
0.13569945 -0.23008327 0.53600001
0.13737497 -0.23008327 0.53600001
0.13879107 -0.22965403 0.53500003
0.13993837 -0.22879551 0.53300005
0.14133884 -0.22836624 0.53200001
0.14300185 -0.22836624 0.53200001
0.14439294 -0.22793698 0.53100002
0.14577778 -0.22750773 0.53000003
0.14743455 -0.22750773 0.53000003
0.14852868 -0.22664919 0.528
0.15017919 -0.22664919 0.528
0.1518297 -0.22664919 0.528
0.15318954 -0.22621994 0.52700001
0.15783165 -0.22579068 0.52600002
0.16245499 -0.22536144 0.52500004
0.16378357 -0.22493218 0.52400005
0.16542156 -0.22493218 0.52400005
0.16674075 -0.22450289 0.523
0.16805369 -0.22407365 0.52200001
0.16968544 -0.22407365 0.52200001
0.17098901 -0.22364439 0.52100003
0.17228632 -0.22321513 0.52000004
0.17357737 -0.22278588 0.51900005
0.17519976 -0.22278588 0.51900005
0.17648143 -0.2223566 0.51800001
0.17775686 -0.22192734 0.51700002
0.17937298 -0.22192734 0.51700002
0.28010112 -0.22106883 0.51500005
0.282258 -0.22149809 0.51600003
0.283871 -0.22149809 0.51600003
0.28603727 -0.22192734 0.51700002
0.28820977 -0.2223566 0.51800001
0.29038855 -0.22278588 0.51900005
0.29201096 -0.22278588 0.51900005
0.29363334 -0.22278588 0.51900005
0.29582462 -0.22321513 0.52000004
0.2974501 -0.22321513 0.52000004
0.29965076 -0.22364439 0.52100003
0.081680819 -0.25312355 0.59400004
0.082975104 -0.25141901 0.59000003
0.084819421 -0.25141901 0.59000003
0.086076193 -0.24971446 0.58600003
0.08760798 -0.24886221 0.58400005
0.089433558 -0.24886221 0.58400005
0.090790316 -0.24758379 0.58100003
0.092128329 -0.24630538 0.57800001
0.093935132 -0.24630538 0.57800001
0.09507937 -0.24460085 0.574
0.096367374 -0.24332246 0.57100004
0.098152302 -0.24332246 0.57100004
0.099412166 -0.24204405 0.56800002
0.10065327 -0.24076563 0.565
0.10241944 -0.24076563 0.565
0.10363242 -0.23948725 0.56200004
0.10482664 -0.23820885 0.55900002
0.10657405 -0.23820885 0.55900002
0.10774014 -0.23693046 0.55600005
0.10908437 -0.23607817 0.55400002
0.11081615 -0.23607817 0.55400002
0.11193847 -0.23479976 0.551
0.11324833 -0.2339475 0.54900002
0.11496449 -0.2339475 0.54900002
0.11625557 -0.23309524 0.54700005
0.11753415 -0.23224297 0.54500002
0.1192378 -0.23224297 0.54500002
0.12049765 -0.23139071 0.54300004
0.12197001 -0.23096459 0.54200006
0.12366429 -0.23096459 0.54200006
0.12489597 -0.2301123 0.54000002
0.12658399 -0.2301123 0.54000002
0.12827201 -0.2301123 0.54000002
0.12971939 -0.22968617 0.53900003
0.1311605 -0.22926004 0.53800005
0.13284226 -0.22926004 0.53800005
0.13427398 -0.22883388 0.537
0.13569945 -0.22840776 0.53600001
0.13711867 -0.22798163 0.53500003
0.13879107 -0.22798163 0.53500003
0.13993837 -0.22712937 0.53300005
0.14133884 -0.22670323 0.53200001
0.14300185 -0.22670323 0.53200001
0.14439294 -0.2262771 0.53100002
0.14577778 -0.22585097 0.53000003
0.14743455 -0.22585097 0.53000003
0.14852868 -0.22499868 0.528
0.14989477 -0.22457255 0.52700001
0.15154216 -0.22457255 0.52700001
0.15318954 -0.22457255 0.52700001
0.16214556 -0.22329417 0.52400005
0.16378357 -0.22329417 0.52400005
0.16542156 -0.22329417 0.52400005
0.16674075 -0.22286801 0.523
0.16805369 -0.22244188 0.52200001
0.16968544 -0.22244188 0.52200001
0.17098901 -0.22201575 0.52100003
0.17228632 -0.22158962 0.52000004
0.17357737 -0.2211635 0.51900005
0.17519976 -0.2211635 0.51900005
0.17648143 -0.22073735 0.51800001
0.17775686 -0.22031122 0.51700002
0.17937298 -0.22031122 0.51700002
0.27795047 -0.21903281 0.514
0.28010112 -0.21945897 0.51500005
0.282258 -0.2198851 0.51600003
0.283871 -0.2198851 0.51600003
0.28603727 -0.22031122 0.51700002
0.28820977 -0.22073735 0.51800001
0.29038855 -0.2211635 0.51900005
0.29201096 -0.2211635 0.51900005
0.29363334 -0.2211635 0.51900005
0.29582462 -0.22158962 0.52000004
0.2974501 -0.22158962 0.52000004
0.29965076 -0.22201575 0.52100003
0.081680819 -0.25126672 0.59400004
0.083115734 -0.24999768 0.59100002
0.08496318 -0.24999768 0.59100002
0.086369962 -0.24872865 0.588
0.087757997 -0.24745964 0.58500004
0.08958669 -0.24745964 0.58500004
0.090946585 -0.24619061 0.58200002
0.092128329 -0.24449857 0.57800001
0.093935132 -0.24449857 0.57800001
0.09507937 -0.24280654 0.574
0.096367374 -0.24153753 0.57100004
0.098152302 -0.24153753 0.57100004
0.099237144 -0.2398455 0.56700003
0.10065327 -0.23899947 0.565
0.10241944 -0.23899947 0.565
0.10363242 -0.23773046 0.56200004
0.10482664 -0.23646143 0.55900002
0.10657405 -0.23646143 0.55900002
0.10774014 -0.23519242 0.55600005
0.10908437 -0.23434639 0.55400002
0.11081615 -0.23434639 0.55400002
0.11193847 -0.23307736 0.551
0.11324833 -0.23223135 0.54900002
0.11496449 -0.23223135 0.54900002
0.11625557 -0.23138535 0.54700005
0.11753415 -0.23053932 0.54500002
0.1192378 -0.23053932 0.54500002
0.12049765 -0.22969331 0.54300004
0.12197001 -0.22927031 0.54200006
0.12366429 -0.22927031 0.54200006
0.12489597 -0.22842428 0.54000002
0.12658399 -0.22842428 0.54000002
0.12827201 -0.22842428 0.54000002
0.12971939 -0.22800128 0.53900003
0.1311605 -0.22757827 0.53800005
0.13284226 -0.22757827 0.53800005
0.13427398 -0.22715524 0.537
0.13569945 -0.22673224 0.53600001
0.13711867 -0.22630924 0.53500003
0.13879107 -0.22630924 0.53500003
0.13993837 -0.22546324 0.53300005
0.14133884 -0.22504021 0.53200001
0.14300185 -0.22504021 0.53200001
0.14439294 -0.2246172 0.53100002
0.14577778 -0.2241942 0.53000003
0.14743455 -0.2241942 0.53000003
0.14852868 -0.22334817 0.528
0.14989477 -0.22292517 0.52700001
0.15154216 -0.22292517 0.52700001
0.16214556 -0.22165616 0.52400005
0.16378357 -0.22165616 0.52400005
0.16542156 -0.22165616 0.52400005
0.16674075 -0.22123313 0.523
0.16805369 -0.22081013 0.52200001
0.16968544 -0.22081013 0.52200001
0.17098901 -0.22038713 0.52100003
0.17228632 -0.21996413 0.52000004
0.17357737 -0.21954113 0.51900005
0.17519976 -0.21954113 0.51900005
0.17648143 -0.2191181 0.51800001
0.17775686 -0.21869509 0.51700002
0.17937298 -0.21869509 0.51700002
0.2768814 -0.21784909 0.51500005
0.27849126 -0.21784909 0.51500005
0.28010112 -0.21784909 0.51500005
0.282258 -0.21827209 0.51600003
0.283871 -0.21827209 0.51600003
0.28603727 -0.21869509 0.51700002
0.28820977 -0.2191181 0.51800001
0.29038855 -0.21954113 0.51900005
0.29201096 -0.21954113 0.51900005
0.29419911 -0.21996413 0.52000004
0.29582462 -0.21996413 0.52000004
0.2974501 -0.21996413 0.52000004
0.29965076 -0.22038713 0.52100003
0.081955835 -0.25024965 0.59600002
0.083256371 -0.24857011 0.59200001
0.085106939 -0.24857011 0.59200001
0.086516857 -0.24731049 0.58900005
0.087908007 -0.24605083 0.58600003
0.089739829 -0.24605083 0.58600003
0.091102846 -0.24479118 0.583
0.092287727 -0.24311167 0.57900006
0.094097659 -0.24311167 0.57900006
0.095245019 -0.24143213 0.57500005
0.096367374 -0.23975261 0.57100004
0.098152302 -0.23975261 0.57100004
0.099237144 -0.23807307 0.56700003
0.10065327 -0.2372333 0.565
0.10241944 -0.2372333 0.565
0.10363242 -0.23597367 0.56200004
0.10482664 -0.23471402 0.55900002
0.10657405 -0.23471402 0.55900002
0.10774014 -0.23345438 0.55600005
0.10908437 -0.23261461 0.55400002
0.11081615 -0.23261461 0.55400002
0.11193847 -0.23135495 0.551
0.11324833 -0.2305152 0.54900002
0.11496449 -0.2305152 0.54900002
0.11625557 -0.22967544 0.54700005
0.11753415 -0.22883566 0.54500002
0.1192378 -0.22883566 0.54500002
0.12049765 -0.22799592 0.54300004
0.12174497 -0.22715613 0.54100001
0.12343612 -0.22715613 0.54100001
0.12489597 -0.22673626 0.54000002
0.12634958 -0.22631638 0.53900003
0.12803449 -0.22631638 0.53900003
0.12971939 -0.22631638 0.53900003
0.13091668 -0.22547661 0.537
0.13259533 -0.22547661 0.537
0.13402393 -0.22505672 0.53600001
0.13544628 -0.22463685 0.53500003
0.13686238 -0.22421697 0.53400004
0.13853164 -0.22421697 0.53400004
0.13993837 -0.2237971 0.53300005
0.14133884 -0.2233772 0.53200001
0.14300185 -0.2233772 0.53200001
0.14439294 -0.22295731 0.53100002
0.14550273 -0.22211756 0.52900004
0.14715637 -0.22211756 0.52900004
0.14852868 -0.22169766 0.528
0.14989477 -0.22127779 0.52700001
0.15154216 -0.22127779 0.52700001
0.15289886 -0.2208579 0.52600002
0.16214556 -0.22001816 0.52400005
0.16378357 -0.22001816 0.52400005
0.16542156 -0.22001816 0.52400005
0.16674075 -0.21959825 0.523
0.16773175 -0.21875851 0.52100003
0.16936037 -0.21875851 0.52100003
0.17098901 -0.21875851 0.52100003
0.17228632 -0.21833862 0.52000004
0.17357737 -0.21791875 0.51900005
0.17519976 -0.21791875 0.51900005
0.17648143 -0.21749885 0.51800001
0.17775686 -0.21707897 0.51700002
0.17937298 -0.21707897 0.51700002
0.2768814 -0.21623921 0.51500005
0.27849126 -0.21623921 0.51500005
0.28010112 -0.21623921 0.51500005
0.282258 -0.2166591 0.51600003
0.283871 -0.2166591 0.51600003
0.28659052 -0.21749885 0.51800001
0.28820977 -0.21749885 0.51800001
0.29038855 -0.21791875 0.51900005
0.29201096 -0.21791875 0.51900005
0.29419911 -0.21833862 0.52000004
0.29582462 -0.21833862 0.52000004
0.2974501 -0.21833862 0.52000004
0.29965076 -0.21875851 0.52100003
0.081955835 -0.24838656 0.59600002
0.083256371 -0.24671954 0.59200001
0.085106939 -0.24671954 0.59200001
0.086516857 -0.24546929 0.58900005
0.087908007 -0.24421901 0.58600003
0.089739829 -0.24421901 0.58600003
0.091102846 -0.24296874 0.583
0.092287727 -0.24130173 0.57900006
0.094097659 -0.24130173 0.57900006
0.095245019 -0.23963471 0.57500005
0.096367374 -0.23796768 0.57100004
0.098152302 -0.23796768 0.57100004
0.099237144 -0.23630065 0.56700003
0.10065327 -0.23546712 0.565
0.10241944 -0.23546712 0.565
0.10363242 -0.23421687 0.56200004
0.10482664 -0.2329666 0.55900002
0.10657405 -0.2329666 0.55900002
0.10774014 -0.23171635 0.55600005
0.10908437 -0.23088282 0.55400002
0.11081615 -0.23088282 0.55400002
0.11193847 -0.22963254 0.551
0.11304205 -0.22838229 0.54800004
0.11475508 -0.22838229 0.54800004
0.11625557 -0.22796553 0.54700005
0.1173185 -0.22671527 0.54400003
0.11901902 -0.22671527 0.54400003
0.12049765 -0.22629851 0.54300004
0.12174497 -0.22546498 0.54100001
0.12343612 -0.22546498 0.54100001
0.12489597 -0.22504823 0.54000002
0.12634958 -0.22463149 0.53900003
0.12803449 -0.22463149 0.53900003
0.12947872 -0.22421473 0.53800005
0.13091668 -0.22379796 0.537
0.13259533 -0.22379796 0.537
0.13402393 -0.22338121 0.53600001
0.13544628 -0.22296445 0.53500003
0.13686238 -0.22254771 0.53400004
0.13853164 -0.22254771 0.53400004
0.13993837 -0.22213095 0.53300005
0.14133884 -0.22171418 0.53200001
0.14300185 -0.22171418 0.53200001
0.14412102 -0.22088067 0.53000003
0.14550273 -0.22046393 0.52900004
0.14715637 -0.22046393 0.52900004
0.14852868 -0.22004715 0.528
0.14989477 -0.21963041 0.52700001
0.15154216 -0.21963041 0.52700001
0.15289886 -0.21921365 0.52600002
0.16081385 -0.21879691 0.52500004
0.16214556 -0.21838015 0.52400005
0.16347098 -0.21796338 0.523
0.16510586 -0.21796338 0.523
0.16674075 -0.21796338 0.523
0.16773175 -0.21712987 0.52100003
0.16936037 -0.21712987 0.52100003
0.17098901 -0.21712987 0.52100003
0.17228632 -0.21671313 0.52000004
0.17357737 -0.21629637 0.51900005
0.17519976 -0.21629637 0.51900005
0.17648143 -0.2158796 0.51800001
0.17775686 -0.21546285 0.51700002
0.17937298 -0.21546285 0.51700002
0.18063904 -0.21504609 0.51600003
0.2768814 -0.21462935 0.51500005
0.27849126 -0.21462935 0.51500005
0.28010112 -0.21462935 0.51500005
0.282258 -0.21504609 0.51600003
0.283871 -0.21504609 0.51600003
0.28659052 -0.2158796 0.51800001
0.28820977 -0.2158796 0.51800001
0.29038855 -0.21629637 0.51900005
0.29201096 -0.21629637 0.51900005
0.29419911 -0.21671313 0.52000004
0.29582462 -0.21671313 0.52000004
0.2974501 -0.21671313 0.52000004
0.29965076 -0.21712987 0.52100003
0.078754708 -0.24817802 0.60000002
0.080630288 -0.24817802 0.60000002
0.081955835 -0.24652348 0.59600002
0.083397016 -0.24528262 0.59300005
0.085250713 -0.24528262 0.59300005
0.086663745 -0.24404173 0.59000003
0.088058017 -0.24280082 0.58700001
0.089892969 -0.24280082 0.58700001
0.091259122 -0.24155995 0.58400005
0.092447117 -0.23990542 0.58000004
0.094260179 -0.23990542 0.58000004
0.095245019 -0.23783727 0.57500005
0.096367374 -0.23618275 0.57100004
0.098152302 -0.23618275 0.57100004
0.099412166 -0.23494186 0.56800002
0.10065327 -0.23370096 0.565
0.10241944 -0.23370096 0.565
0.10363242 -0.23246008 0.56200004
0.10482664 -0.23121919 0.55900002
0.10657405 -0.23121919 0.55900002
0.10774014 -0.22997831 0.55600005
0.10888746 -0.22873741 0.55300003
0.11061613 -0.22873741 0.55300003
0.11193847 -0.22791013 0.551
0.11304205 -0.22666927 0.54800004
0.11475508 -0.22666927 0.54800004
0.11604303 -0.22584198 0.546
0.1173185 -0.22501473 0.54400003
0.11901902 -0.22501473 0.54400003
0.12027574 -0.22418749 0.54200006
0.12174497 -0.22377384 0.54100001
0.12343612 -0.22377384 0.54100001
0.12489597 -0.22336021 0.54000002
0.12634958 -0.22294658 0.53900003
0.12803449 -0.22294658 0.53900003
0.12947872 -0.22253296 0.53800005
0.13091668 -0.22211932 0.537
0.13259533 -0.22211932 0.537
0.13402393 -0.22170569 0.53600001
0.13544628 -0.22129206 0.53500003
0.13686238 -0.22087844 0.53400004
0.13853164 -0.22087844 0.53400004
0.13993837 -0.22046481 0.53300005
0.14133884 -0.22005117 0.53200001
0.14300185 -0.22005117 0.53200001
0.14412102 -0.21922392 0.53000003
0.14550273 -0.21881029 0.52900004
0.14715637 -0.21881029 0.52900004
0.14852868 -0.21839665 0.528
0.14989477 -0.21798302 0.52700001
0.15154216 -0.21798302 0.52700001
0.15289886 -0.2175694 0.52600002
0.15917273 -0.21715577 0.52500004
0.16081385 -0.21715577 0.52500004
0.16214556 -0.21674214 0.52400005
0.16347098 -0.2163285 0.523
0.16510586 -0.2163285 0.523
0.16674075 -0.2163285 0.523
0.16773175 -0.21550125 0.52100003
0.16936037 -0.21550125 0.52100003
0.17098901 -0.21550125 0.52100003
0.17228632 -0.21508762 0.52000004
0.17357737 -0.214674 0.51900005
0.17519976 -0.214674 0.51900005
0.17648143 -0.21426035 0.51800001
0.17775686 -0.21384673 0.51700002
0.17937298 -0.21384673 0.51700002
0.18063904 -0.2134331 0.51600003
0.18225203 -0.2134331 0.51600003
0.2768814 -0.21301948 0.51500005
0.27849126 -0.21301948 0.51500005
0.28064501 -0.2134331 0.51600003
0.282258 -0.2134331 0.51600003
0.283871 -0.2134331 0.51600003
0.28603727 -0.21384673 0.51700002
0.28876618 -0.214674 0.51900005
0.29038855 -0.214674 0.51900005
0.29201096 -0.214674 0.51900005
0.29419911 -0.21508762 0.52000004
0.29639348 -0.21550125 0.52100003
0.29802212 -0.21550125 0.52100003
0.29965076 -0.21550125 0.52100003
0.078754708 -0.24630244 0.60000002
0.080630288 -0.24630244 0.60000002
0.081955835 -0.24466042 0.59600002
0.083397016 -0.24342892 0.59300005
0.085250713 -0.24342892 0.59300005
0.086663745 -0.24219739 0.59000003
0.088058017 -0.24096587 0.58700001
0.089892969 -0.24096587 0.58700001
0.091259122 -0.23973438 0.58400005
0.092447117 -0.23809236 0.58000004
0.094260179 -0.23809236 0.58000004
0.095245019 -0.23603985 0.57500005
0.096367374 -0.23439783 0.57100004
0.098152302 -0.23439783 0.57100004
0.099412166 -0.23316631 0.56800002
0.10065327 -0.23193479 0.565
0.10241944 -0.23193479 0.565
0.10363242 -0.23070329 0.56200004
0.10482664 -0.22947177 0.55900002
0.10657405 -0.22947177 0.55900002
0.10774014 -0.22824027 0.55600005
0.10888746 -0.22700875 0.55300003
0.11061613 -0.22700875 0.55300003
0.11193847 -0.22618772 0.551
0.11304205 -0.22495623 0.54800004
0.11475508 -0.22495623 0.54800004
0.11604303 -0.22413521 0.546
0.1173185 -0.22331421 0.54400003
0.11901902 -0.22331421 0.54400003
0.12027574 -0.22249322 0.54200006
0.12151993 -0.22167219 0.54000002
0.12320796 -0.22167219 0.54000002
0.12466469 -0.2212617 0.53900003
0.12611517 -0.2208512 0.53800005
0.12779695 -0.2208512 0.53800005
0.12923804 -0.22044067 0.537
0.1306729 -0.22003017 0.53600001
0.13234842 -0.22003017 0.53600001
0.13377389 -0.21961968 0.53500003
0.13544628 -0.21961968 0.53500003
0.13660608 -0.21879868 0.53300005
0.13827223 -0.21879868 0.53300005
0.13967581 -0.21838816 0.53200001
0.14107317 -0.21797766 0.53100002
0.14273305 -0.21797766 0.53100002
0.14412102 -0.21756716 0.53000003
0.14550273 -0.21715666 0.52900004
0.14715637 -0.21715666 0.52900004
0.14852868 -0.21674614 0.528
0.14989477 -0.21633564 0.52700001
0.15154216 -0.21633564 0.52700001
0.15289886 -0.21592514 0.52600002
0.15917273 -0.21551463 0.52500004
0.16081385 -0.21551463 0.52500004
0.16214556 -0.21510413 0.52400005
0.16347098 -0.21469362 0.523
0.16510586 -0.21469362 0.523
0.16674075 -0.21469362 0.523
0.16773175 -0.21387261 0.52100003
0.16936037 -0.21387261 0.52100003
0.17098901 -0.21387261 0.52100003
0.17228632 -0.21346211 0.52000004
0.17357737 -0.21305162 0.51900005
0.17519976 -0.21305162 0.51900005
0.17648143 -0.21264109 0.51800001
0.17810068 -0.21264109 0.51800001
0.17971992 -0.21264109 0.51800001
0.1809891 -0.21223059 0.51700002
0.18225203 -0.2118201 0.51600003
0.18386504 -0.2118201 0.51600003
0.2768814 -0.2114096 0.51500005
0.27849126 -0.2114096 0.51500005
0.28064501 -0.2118201 0.51600003
0.282258 -0.2118201 0.51600003
0.283871 -0.2118201 0.51600003
0.28603727 -0.21223059 0.51700002
0.28876618 -0.21305162 0.51900005
0.29038855 -0.21305162 0.51900005
0.29201096 -0.21305162 0.51900005
0.29419911 -0.21346211 0.52000004
0.29639348 -0.21387261 0.52100003
0.29802212 -0.21387261 0.52100003
0.29965076 -0.21387261 0.52100003
0.078623459 -0.24401948 0.59900004
0.080495909 -0.24401948 0.59900004
0.081818327 -0.24238996 0.59500003
0.083256371 -0.24116783 0.59200001
0.085106939 -0.24116783 0.59200001
0.086369962 -0.23953831 0.588
0.087908007 -0.23872356 0.58600003
0.089739829 -0.23872356 0.58600003
0.091102846 -0.23750143 0.583
0.092128329 -0.23546453 0.57800001
0.093935132 -0.23546453 0.57800001
0.09507937 -0.23383501 0.574
0.096367374 -0.23261289 0.57100004
0.098152302 -0.23261289 0.57100004
0.099237144 -0.23098338 0.56700003
0.10047513 -0.22976124 0.56400001
0.10223816 -0.22976124 0.56400001
0.10363242 -0.22894649 0.56200004
0.10482664 -0.22772436 0.55900002
0.10657405 -0.22772436 0.55900002
0.10774014 -0.22650224 0.55600005
0.10888746 -0.22528009 0.55300003
0.11061613 -0.22528009 0.55300003
0.11193847 -0.22446533 0.551
0.11304205 -0.22324321 0.54800004
0.11475508 -0.22324321 0.54800004
0.1158305 -0.22202106 0.54500002
0.1173185 -0.22161369 0.54400003
0.11901902 -0.22161369 0.54400003
0.12005382 -0.22039154 0.54100001
0.12151993 -0.21998417 0.54000002
0.12320796 -0.21998417 0.54000002
0.12466469 -0.21957679 0.53900003
0.12588075 -0.21876203 0.537
0.12755939 -0.21876203 0.537
0.12899739 -0.21835466 0.53600001
0.1306729 -0.21835466 0.53600001
0.13234842 -0.21835466 0.53600001
0.13377389 -0.21794729 0.53500003
0.13519311 -0.21753991 0.53400004
0.13660608 -0.21713254 0.53300005
0.13827223 -0.21713254 0.53300005
0.13967581 -0.21672514 0.53200001
0.14107317 -0.21631777 0.53100002
0.14273305 -0.21631777 0.53100002
0.14412102 -0.21591039 0.53000003
0.14550273 -0.21550302 0.52900004
0.14715637 -0.21550302 0.52900004
0.14852868 -0.21509562 0.528
0.14989477 -0.21468826 0.52700001
0.15154216 -0.21468826 0.52700001
0.15289886 -0.21428087 0.52600002
0.15454312 -0.21428087 0.52600002
0.15753159 -0.21387351 0.52500004
0.15886953 -0.21346614 0.52400005
0.16050754 -0.21346614 0.52400005
0.16214556 -0.21346614 0.52400005
0.16347098 -0.21305874 0.523
0.16510586 -0.21305874 0.523
0.16642193 -0.21265136 0.52200001
0.16773175 -0.21224399 0.52100003
0.16936037 -0.21224399 0.52100003
0.17098901 -0.21224399 0.52100003
0.17228632 -0.21183662 0.52000004
0.17357737 -0.21142924 0.51900005
0.17519976 -0.21142924 0.51900005
0.17648143 -0.21102184 0.51800001
0.17810068 -0.21102184 0.51800001
0.17971992 -0.21102184 0.51800001
0.1809891 -0.21061447 0.51700002
0.18260524 -0.21061447 0.51700002
0.18422136 -0.21061447 0.51700002
0.2768814 -0.20979972 0.51500005
0.27849126 -0.20979972 0.51500005
0.28064501 -0.2102071 0.51600003
0.282258 -0.2102071 0.51600003
0.283871 -0.2102071 0.51600003
0.28603727 -0.21061447 0.51700002
0.28876618 -0.21142924 0.51900005
0.29038855 -0.21142924 0.51900005
0.29201096 -0.21142924 0.51900005
0.29419911 -0.21183662 0.52000004
0.29639348 -0.21224399 0.52100003
0.29802212 -0.21224399 0.52100003
0.29965076 -0.21224399 0.52100003
0.078229681 -0.24093427 0.59600002
0.080092758 -0.24093427 0.59600002
0.081405796 -0.23931725 0.59200001
0.082975104 -0.23850876 0.59000003
0.084819421 -0.23850876 0.59000003
0.086223073 -0.237296 0.58700001
0.087757997 -0.23648751 0.58500004
0.08958669 -0.23648751 0.58500004
0.090946585 -0.23527473 0.58200002
0.092128329 -0.23365772 0.57800001
0.093935132 -0.23365772 0.57800001
0.09507937 -0.23204072 0.574
0.096198604 -0.23042372 0.57000005
0.09798041 -0.23042372 0.57000005
0.099237144 -0.22921096 0.56700003
0.10047513 -0.2279982 0.56400001
0.10223816 -0.2279982 0.56400001
0.10363242 -0.2271897 0.56200004
0.10482664 -0.22597694 0.55900002
0.10657405 -0.22597694 0.55900002
0.10774014 -0.2247642 0.55600005
0.10888746 -0.22355144 0.55300003
0.11061613 -0.22355144 0.55300003
0.11173531 -0.22233866 0.55000001
0.11304205 -0.22153017 0.54800004
0.11475508 -0.22153017 0.54800004
0.1158305 -0.22031741 0.54500002
0.11710284 -0.21950892 0.54300004
0.11880025 -0.21950892 0.54300004
0.12005382 -0.21870039 0.54100001
0.1212949 -0.2178919 0.53900003
0.1229798 -0.2178919 0.53900003
0.12443341 -0.21748765 0.53800005
0.12588075 -0.21708338 0.537
0.12755939 -0.21708338 0.537
0.12899739 -0.21667914 0.53600001
0.1304291 -0.21627489 0.53500003
0.13210151 -0.21627489 0.53500003
0.13352385 -0.21587065 0.53400004
0.13493995 -0.2154664 0.53300005
0.13660608 -0.2154664 0.53300005
0.13827223 -0.2154664 0.53300005
0.13967581 -0.21506213 0.53200001
0.14107317 -0.21465787 0.53100002
0.14273305 -0.21465787 0.53100002
0.14412102 -0.21425363 0.53000003
0.14550273 -0.21384938 0.52900004
0.14715637 -0.21384938 0.52900004
0.14852868 -0.21344511 0.528
0.14989477 -0.21304087 0.52700001
0.15154216 -0.21304087 0.52700001
0.15289886 -0.21263662 0.52600002
0.15454312 -0.21263662 0.52600002
0.15618737 -0.21263662 0.52600002
0.15753159 -0.21223237 0.52500004
0.15886953 -0.21182813 0.52400005
0.16050754 -0.21182813 0.52400005
0.16214556 -0.21182813 0.52400005
0.16347098 -0.21142386 0.523
0.16510586 -0.21142386 0.523
0.16642193 -0.21101961 0.52200001
0.16773175 -0.21061537 0.52100003
0.16936037 -0.21061537 0.52100003
0.17098901 -0.21061537 0.52100003
0.17228632 -0.21021111 0.52000004
0.17357737 -0.20980687 0.51900005
0.17519976 -0.20980687 0.51900005
0.17648143 -0.20940259 0.51800001
0.17810068 -0.20940259 0.51800001
0.17971992 -0.20940259 0.51800001
0.1809891 -0.20899835 0.51700002
0.18260524 -0.20899835 0.51700002
