# .PCD v0.7 - Point Cloud Data file format
VERSION 0.7
FIELDS x y z
SIZE 4 4 4
TYPE F F F
COUNT 1 1 1
WIDTH 79
HEIGHT 1
VIEWPOINT 0 0 0 1 0 0 0
POINTS 79
DATA ascii
-0.24931978 0.35508674 0.72500002
-0.24705344 0.35508674 0.72500002
-0.24880996 0.35340986 0.71700001
-0.24725644 0.35439569 0.71900004
-0.2486003 0.35439846 0.71000004
-0.24707489 0.35539675 0.71200001
-0.2490534 0.35410649 0.70500004
-0.24754988 0.35511103 0.70700002
-0.24568683 0.35561332 0.708
-0.24416144 0.3566179 0.71000004
0.27537623 0.37821585 0.75300002
0.27773008 0.37821585 0.75300002
0.27971199 0.37771359 0.75200003
0.28206271 0.37771359 0.75200003
-0.2490534 0.35631031 0.70500004
0.27537623 0.38056973 0.75300002
0.27773008 0.38056973 0.75300002
0.27971199 0.38006431 0.75200003
0.28206271 0.38006431 0.75200003
-0.14609347 0.36003968 0.708
-0.14126693 0.35902262 0.70600003
0.27464482 0.38190651 0.75100005
0.27625474 0.38088945 0.74900001
0.2785961 0.38088945 0.74900001
0.28093746 0.38088945 0.74900001
0.28327882 0.38088945 0.74900001
-0.14126693 0.36122957 0.70600003
-0.14485539 0.36137736 0.70200002
-0.14266098 0.36137736 0.70200002
-0.14046654 0.36137736 0.70200002
-0.14382367 0.36098224 0.69700003
-0.14164487 0.36098224 0.69700003
-0.13926598 0.36046433 0.69600004
-0.14164487 0.36316109 0.69700003
-0.13492365 0.36119127 0.68500006
-0.13045035 0.36066395 0.68400002
-0.12831219 0.36066395 0.68400002
-0.13413578 0.36333969 0.68100005
-0.13220082 0.36387321 0.68200004
-0.12987821 0.36333969 0.68100005
-0.12756182 0.36280611 0.68000001
-0.12543617 0.36280611 0.68000001
-0.16332202 0.35860687 0.65300006
-0.15948336 0.35915604 0.65400004
-0.15792044 0.36025438 0.65600002
0.21103676 0.37453276 0.68200004
-0.16485679 0.35954353 0.65100002
-0.15948336 0.36120042 0.65400004
0.20948957 0.37390319 0.67700005
0.21160585 0.37390319 0.67700005
-0.16359061 0.35880142 0.64600003
-0.16182135 0.35935685 0.64700001
-0.16029283 0.3604677 0.64900005
-0.15826407 0.3604677 0.64900005
-0.15671678 0.36157852 0.65100002
-0.155157 0.36268941 0.65300006
0.20374109 0.37324238 0.67200005
0.20614804 0.37379777 0.67300004
0.20825182 0.37379777 0.67300004
0.21035559 0.37379777 0.67300004
0.21277505 0.3743532 0.67400002
0.21520077 0.37490863 0.67500001
-0.16182135 0.36137936 0.64700001
-0.16029283 0.36249647 0.64900005
-0.15826407 0.36249647 0.64900005
-0.15671678 0.36361355 0.65100002
-0.155157 0.36473066 0.65300006
0.20374109 0.37534302 0.67200005
0.20614804 0.37590155 0.67300004
0.20825182 0.37590155 0.67300004
0.21035559 0.37590155 0.67300004
0.21277505 0.37646011 0.67400002
0.21520077 0.37701863 0.67500001
0.20374109 0.37744367 0.67200005
0.20614804 0.37800533 0.67300004
0.20825182 0.37800533 0.67300004
0.21035559 0.37800533 0.67300004
0.21277505 0.37856701 0.67400002
0.21520077 0.37912866 0.67500001
