# .PCD v0.7 - Point Cloud Data file format
VERSION 0.7
FIELDS x y z
SIZE 4 4 4
TYPE F F F
COUNT 1 1 1
WIDTH 399
HEIGHT 1
VIEWPOINT 0 0 0 1 0 0 0
POINTS 399
DATA ascii
0.29014912 0.36700177 0.95700002
0.29314068 0.36700177 0.95700002
0.29613221 0.36700177 0.95700002
0.29849866 0.36623478 0.95500004
0.29849866 0.36922008 0.95500004
0.28385693 0.36869767 0.94600004
0.28590453 0.36752844 0.94300002
0.2888523 0.36752844 0.94300002
0.29118121 0.36674896 0.94100004
0.29287249 0.36519 0.93700004
0.29580152 0.36519 0.93700004
0.29841173 0.36480024 0.93600005
0.2752983 0.36811903 0.93700004
0.27822733 0.36811903 0.93700004
0.28085631 0.36772615 0.93600005
0.28256947 0.36615467 0.93200004
0.28548288 0.36615467 0.93200004
0.28746796 0.36497605 0.92900002
0.28974685 0.36419031 0.92700005
0.29264462 0.36419031 0.92700005
0.29522359 0.36379746 0.92600006
0.29683045 0.36222598 0.92200005
0.2997126 0.36222598 0.92200005
0.28085631 0.37065205 0.93600005
0.28256947 0.36906806 0.93200004
0.28548288 0.36906806 0.93200004
0.28746796 0.36788008 0.92900002
0.28974685 0.36708808 0.92700005
0.29264462 0.36708808 0.92700005
0.29522359 0.3666921 0.92600006
0.29683045 0.3651081 0.92200005
0.2997126 0.3651081 0.92200005
0.27525797 0.36998588 0.92700005
0.27785572 0.36958677 0.92600006
0.27953762 0.36799029 0.92200005
0.28241977 0.36799029 0.92200005
0.28437358 0.36679292 0.91900003
0.28630865 0.36559555 0.91600007
0.28917205 0.36559555 0.91600007
0.29139778 0.36479729 0.91400003
0.29361105 0.36399907 0.91200006
0.29646191 0.36399907 0.91200006
0.29898462 0.36359996 0.91100007
0.22117275 0.36966568 0.91900003
0.26942211 0.3688612 0.91700006
0.27228865 0.3688612 0.91700006
0.27485511 0.36845896 0.91600007
0.27711213 0.36765444 0.91400003
0.27996925 0.36765444 0.91400003
0.28189808 0.36644772 0.91100007
0.28349558 0.36483872 0.90700006
0.28633082 0.36483872 0.90700006
0.28884727 0.36443645 0.90600002
0.2910355 0.36363196 0.90400004
0.29386139 0.36363196 0.90400004
0.29668725 0.36363196 0.90400004
0.29951313 0.36363196 0.90400004
0.1964689 0.36402559 0.89800006
0.20625925 0.36645785 0.90400004
0.27050704 0.36929548 0.91100007
0.27335483 0.36929548 0.91100007
0.27711213 0.37051156 0.91400003
0.27996925 0.37051156 0.91400003
0.28189808 0.36929548 0.91100007
0.28349558 0.36767396 0.90700006
0.28633082 0.36767396 0.90700006
0.28884727 0.36726856 0.90600002
0.2910355 0.36645785 0.90400004
0.29386139 0.36645785 0.90400004
0.1964689 0.3668327 0.89800006
0.27050704 0.37214321 0.91100007
0.27215457 0.37050921 0.90700006
0.27468663 0.37010071 0.90600002
0.27751875 0.37010071 0.90600002
0.27973202 0.36928371 0.90400004
0.28162017 0.3680582 0.90100002
0.28443667 0.3680582 0.90100002
0.28629673 0.3668327 0.89800006
0.28845996 0.3660157 0.89600003
0.29126084 0.3660157 0.89600003
0.29406169 0.3660157 0.89600003
0.20140804 0.36840495 0.89500004
0.20420578 0.36840495 0.89500004
0.27035421 0.3708747 0.90100002
0.27256432 0.37005144 0.89900005
0.27537459 0.37005144 0.89900005
0.27787539 0.36963984 0.89800006
0.2797448 0.36840495 0.89500004
0.28254256 0.36840495 0.89500004
0.28470266 0.3675817 0.89300007
0.14171529 0.3616634 0.87200004
0.19616929 0.36664042 0.88400006
0.19893263 0.36664042 0.88400006
0.20238048 0.36788467 0.88700002
0.14614289 0.36458889 0.83500004
0.14893121 0.36502552 0.83600003
0.15154451 0.36502552 0.83600003
0.15415783 0.36502552 0.83600003
0.15677114 0.36502552 0.83600003
0.15938446 0.36502552 0.83600003
0.16199777 0.36502552 0.83600003
0.16480796 0.36546215 0.83700001
0.14893121 0.36763883 0.83600003
0.15154451 0.36763883 0.83600003
0.15415783 0.36763883 0.83600003
0.15677114 0.36763883 0.83600003
0.15938446 0.36763883 0.83600003
0.16199777 0.36763883 0.83600003
0.14821862 0.36848059 0.83200002
0.15081942 0.36848059 0.83200002
0.15342022 0.36848059 0.83200002
0.15602104 0.36848059 0.83200002
0.15862185 0.36848059 0.83200002
0.16122265 0.36848059 0.83200002
0.16382346 0.36848059 0.83200002
0.16044755 0.37188566 0.82800007
0.29895884 0.37682617 0.83900005
0.28052214 0.37583074 0.83100003
0.28311983 0.37583074 0.83100003
0.28571752 0.37583074 0.83100003
0.28866214 0.37628299 0.83200002
0.29161301 0.37673527 0.83300006
0.29421696 0.37673527 0.83300006
0.29682088 0.37673527 0.83300006
0.27725556 0.37751764 0.82900006
0.28052214 0.37842843 0.83100003
0.28311983 0.37842843 0.83100003
0.28571752 0.37842843 0.83100003
0.28866214 0.37888381 0.83200002
0.29161301 0.37933922 0.83300006
0.29421696 0.37933922 0.83300006
0.29682088 0.37933922 0.83300006
0.27815917 0.3778165 0.82400006
0.28073496 0.3778165 0.82400006
0.28331074 0.3778165 0.82400006
0.28692737 0.37919202 0.82700002
0.28986263 0.37965056 0.82800007
0.29245093 0.37965056 0.82800007
0.29503924 0.37965056 0.82800007
0.29798698 0.38010907 0.82900006
0.27579615 0.37716079 0.81700003
0.27937216 0.37854573 0.82000005
0.28193545 0.37854573 0.82000005
0.28484568 0.37900737 0.82100004
0.28811225 0.37993065 0.82300001
0.29068491 0.37993065 0.82300001
0.29325759 0.37993065 0.82300001
0.29583025 0.37993065 0.82300001
0.29876554 0.38039228 0.82400006
0.26518065 0.37553179 0.80800003
0.26870039 0.37692612 0.81100005
0.27123553 0.37692612 0.81100005
0.27410829 0.37739089 0.81200004
0.27937216 0.38110903 0.82000005
0.28193545 0.38110903 0.82000005
0.28484568 0.3815738 0.82100004
0.28811225 0.3825033 0.82300001
0.29068491 0.3825033 0.82300001
0.29325759 0.3825033 0.82300001
0.29583025 0.3825033 0.82300001
0.29876554 0.3829681 0.82400006
0.26232979 0.3775897 0.80700004
0.26518065 0.3780576 0.80800003
0.26870039 0.37946129 0.81100005
0.27123553 0.37946129 0.81100005
0.27410829 0.37992916 0.81200004
0.27698725 0.38039705 0.81300002
0.27952868 0.38039705 0.81300002
0.28276399 0.38133284 0.81500006
0.28601182 0.38226864 0.81700003
0.28856573 0.38226864 0.81700003
0.29111964 0.38226864 0.81700003
0.29439247 0.38320443 0.81900007
0.29695264 0.38320443 0.81900007
0.2995128 0.38320443 0.81900007
0.2603794 0.37728629 0.80100006
0.26321149 0.37775728 0.80200005
0.26604983 0.37822831 0.80300003
0.26855996 0.37822831 0.80300003
0.27242044 0.38011238 0.80700004
0.27596518 0.38152546 0.81000006
0.27849722 0.38152546 0.81000006
0.28137618 0.38199645 0.81100005
0.28426144 0.38246748 0.81200004
0.2867997 0.38246748 0.81200004
0.28969431 0.38293847 0.81300002
0.29295465 0.38388053 0.81500006
0.29550231 0.38388053 0.81500006
0.29804996 0.38388053 0.81500006
0.26273662 0.37599701 0.79300004
0.26655331 0.3778936 0.79700005
0.26971984 0.37884188 0.79900002
0.27358028 0.38073844 0.80300003
0.27609044 0.38073844 0.80300003
0.27894753 0.38121259 0.80400002
0.28251106 0.38263503 0.80700004
0.2850337 0.38263503 0.80700004
0.28791267 0.38310918 0.80800003
0.29115739 0.38405746 0.81000006
0.2936894 0.38405746 0.81000006
0.29622144 0.38405746 0.81000006
0.26025772 0.3784759 0.79300004
0.26273662 0.3784759 0.79300004
0.26655331 0.38038498 0.79700005
0.26971984 0.38133952 0.79900002
0.27358028 0.3832486 0.80300003
0.27609044 0.3832486 0.80300003
0.27894753 0.38372585 0.80400002
0.28251106 0.38515767 0.80700004
0.2850337 0.38515767 0.80700004
0.28791267 0.38563496 0.80800003
0.29115739 0.3865895 0.81000006
0.2936894 0.3865895 0.81000006
0.29622144 0.3865895 0.81000006
0.2991223 0.38706678 0.81100005
0.26387772 0.37903318 0.78900003
0.26769441 0.38095477 0.79300004
0.27153611 0.38287637 0.79700005
0.2740275 0.38287637 0.79700005
0.2772128 0.38383716 0.79900002
0.28076068 0.38527834 0.80200005
0.28326771 0.38527834 0.80200005
0.28648737 0.38623914 0.80400002
0.28971955 0.38719994 0.80600005
0.2922391 0.38719994 0.80600005
0.29475862 0.38719994 0.80600005
0.2980158 0.38816074 0.80800003
0.27024543 0.38004899 0.78600001
0.27339634 0.38101608 0.78800005
0.27725992 0.38295016 0.79200006
0.26398113 0.38055944 0.78200006
0.26642564 0.38055944 0.78200006
0.27024543 0.38250601 0.78600001
0.27339634 0.38347933 0.78800005
0.27725992 0.38542593 0.79200006
0.27973568 0.38542593 0.79200006
-0.20742419 0.34997311 0.68400002
-0.20498592 0.34946147 0.68300003
-0.20498592 0.3515965 0.68300003
-0.20621119 0.3521778 0.68000001
-0.14676686 0.35601956 0.65200001
-0.14472872 0.35601956 0.65200001
-0.14290945 0.35656562 0.65300006
-0.14065246 0.35601956 0.65200001
-0.13861433 0.35601956 0.65200001
-0.13636672 0.35547352 0.65100002
-0.13433172 0.35547352 0.65100002
-0.16157123 0.3547627 0.64600003
-0.15955187 0.3547627 0.64600003
-0.1575325 0.3547627 0.64600003
-0.15170884 0.35531184 0.64700001
-0.14991771 0.35586101 0.648
-0.14789206 0.35586101 0.648
-0.14586644 0.35586101 0.648
-0.1440628 0.35641021 0.64900005
-0.14203405 0.35641021 0.64900005
-0.14000529 0.35641021 0.64900005
-0.13797654 0.35641021 0.64900005
-0.13594778 0.35641021 0.64900005
-0.13350633 0.35531184 0.64700001
-0.13148384 0.35531184 0.64700001
-0.12946133 0.35531184 0.64700001
-0.12743883 0.35531184 0.64700001
-0.092440806 0.36080351 0.65700001
-0.090524629 0.36135271 0.65800005
-0.086542182 0.36190188 0.65900004
-0.15955187 0.35678208 0.64600003
-0.15170884 0.35733435 0.64700001
-0.14789206 0.35788664 0.648
-0.14586644 0.35788664 0.648
-0.1440628 0.35843897 0.64900005
-0.14203405 0.35843897 0.64900005
-0.14000529 0.35843897 0.64900005
-0.13797654 0.35843897 0.64900005
-0.13594778 0.35843897 0.64900005
-0.13350633 0.35733435 0.64700001
-0.13148384 0.35733435 0.64700001
-0.12946133 0.35733435 0.64700001
-0.12743883 0.35733435 0.64700001
-0.097551547 0.35899124 0.65000004
-0.095666617 0.35954353 0.65100002
-0.093631618 0.35954353 0.65100002
-0.091878012 0.36064816 0.65300006
-0.089974329 0.36120042 0.65400004
-0.087929949 0.36120042 0.65400004
-0.086016886 0.36175272 0.65500003
-0.084097579 0.36230502 0.65600002
-0.082172006 0.36285728 0.65700001
-0.080118246 0.36285728 0.65700001
-0.078183308 0.36340961 0.65800005
-0.074182101 0.36396191 0.65900004
-0.07212209 0.36396191 0.65900004
-0.16458456 0.35657975 0.64200002
-0.16257767 0.35657975 0.64200002
-0.1605708 0.35657975 0.64200002
-0.15856394 0.35657975 0.64200002
-0.15680091 0.35713518 0.64300001
-0.15479092 0.35713518 0.64300001
-0.15278092 0.35713518 0.64300001
-0.15077092 0.35713518 0.64300001
-0.1489923 0.3576906 0.64400005
-0.14743562 0.35880142 0.64600003
-0.14541624 0.35880142 0.64600003
-0.14339687 0.35880142 0.64600003
-0.14137749 0.35880142 0.64600003
-0.13935812 0.35880142 0.64600003
-0.13733874 0.35880142 0.64600003
-0.13531937 0.35880142 0.64600003
-0.13309364 0.35824603 0.64500004
-0.13087417 0.3576906 0.64400005
-0.12866095 0.35713518 0.64300001
-0.12665096 0.35713518 0.64300001
-0.12464095 0.35713518 0.64300001
-0.12263095 0.35713518 0.64300001
-0.098817401 0.35824603 0.64500004
-0.096951231 0.35880142 0.64600003
-0.095078804 0.35935685 0.64700001
-0.093056306 0.35935685 0.64700001
-0.091174498 0.35991228 0.648
-0.089424029 0.36102313 0.65000004
-0.087392151 0.36102313 0.65000004
-0.08549159 0.36157852 0.65100002
-0.083456591 0.36157852 0.65100002
-0.081546649 0.36213395 0.65200001
-0.079508521 0.36213395 0.65200001
-0.077589214 0.36268941 0.65300006
-0.075663649 0.3632448 0.65400004
-0.073619269 0.3632448 0.65400004
0.101991 0.36990982 0.66600001
-0.16659142 0.35858661 0.64200002
-0.16458456 0.35858661 0.64200002
-0.16257767 0.35858661 0.64200002
-0.1605708 0.35858661 0.64200002
-0.15856394 0.35858661 0.64200002
-0.15680091 0.35914516 0.64300001
-0.15479092 0.35914516 0.64300001
-0.15278092 0.35914516 0.64300001
-0.15077092 0.35914516 0.64300001
-0.1489923 0.35970375 0.64400005
-0.14743562 0.3608208 0.64600003
-0.14541624 0.3608208 0.64600003
-0.14339687 0.3608208 0.64600003
-0.14137749 0.3608208 0.64600003
-0.13935812 0.3608208 0.64600003
-0.13733874 0.3608208 0.64600003
-0.13531937 0.3608208 0.64600003
-0.13309364 0.36026227 0.64500004
-0.13087417 0.35970375 0.64400005
-0.12866095 0.35914516 0.64300001
-0.12665096 0.35914516 0.64300001
-0.12464095 0.35914516 0.64300001
-0.12263095 0.35914516 0.64300001
-0.10083365 0.36026227 0.64500004
-0.098817401 0.36026227 0.64500004
-0.096951231 0.3608208 0.64600003
-0.095078804 0.36137936 0.64700001
-0.093056306 0.36137936 0.64700001
-0.091174498 0.36193788 0.648
-0.089424029 0.36305499 0.65000004
-0.087392151 0.36305499 0.65000004
-0.08549159 0.36361355 0.65100002
-0.083456591 0.36361355 0.65100002
-0.081546649 0.36417207 0.65200001
-0.079508521 0.36417207 0.65200001
-0.077589214 0.36473066 0.65300006
-0.075663649 0.36528918 0.65400004
-0.073619269 0.36528918 0.65400004
-0.071684323 0.36584774 0.65500003
-0.069636814 0.36584774 0.65500003
-0.067589298 0.36584774 0.65500003
0.080806404 0.37031612 0.66300005
0.083128937 0.3714332 0.66500002
0.085463971 0.37255031 0.66700006
0.101991 0.37199172 0.66600001
0.1036041 0.37031612 0.66300005
-0.24096116 0.35778514 0.63700002
-0.20312756 0.35778514 0.63700002
-0.20082058 0.35722348 0.63600004
-0.19883247 0.35722348 0.63600004
-0.10083365 0.36227852 0.64500004
-0.098817401 0.36227852 0.64500004
-0.096951231 0.36284018 0.64600003
-0.095078804 0.36340186 0.64700001
-0.093056306 0.36340186 0.64700001
-0.091174498 0.36396351 0.648
-0.089424029 0.36508688 0.65000004
-0.087392151 0.36508688 0.65000004
-0.08549159 0.36564854 0.65100002
-0.083456591 0.36564854 0.65100002
-0.081546649 0.36621022 0.65200001
-0.079508521 0.36621022 0.65200001
-0.077589214 0.36677191 0.65300006
-0.075663649 0.36733356 0.65400004
-0.073619269 0.36733356 0.65400004
-0.071684323 0.36789525 0.65500003
-0.069636814 0.36789525 0.65500003
-0.063494287 0.36789525 0.65500003
0.22407867 0.3763203 0.67000002
0.22617309 0.3763203 0.67000002
