# .PCD v0.7 - Point Cloud Data file format
VERSION 0.7
FIELDS x y z
SIZE 4 4 4
TYPE F F F
COUNT 1 1 1
WIDTH 107
HEIGHT 1
VIEWPOINT 0 0 0 1 0 0 0
POINTS 107
DATA ascii
-0.20208253 0.38086224 0.79800004
-0.20667736 0.37807241 0.78700006
-0.20473619 0.37903318 0.78900003
-0.2030389 0.38047439 0.79200006
-0.20056312 0.38047439 0.79200006
-0.19858757 0.38143519 0.79400003
-0.19659953 0.38239598 0.79600006
-0.20473619 0.38149959 0.78900003
-0.2030389 0.38295016 0.79200006
-0.20056312 0.38295016 0.79200006
-0.19858757 0.38391718 0.79400003
-0.19659953 0.38488424 0.79600006
-0.20536429 0.38055944 0.78200006
-0.20369823 0.38201937 0.78500003
-0.20150071 0.38250601 0.78600001
-0.19904368 0.38250601 0.78600001
-0.1970869 0.38347933 0.78800005
-0.19536459 0.38493925 0.79100001
-0.20214131 0.38153461 0.77900004
-0.2002189 0.38251415 0.78100002
-0.19777751 0.38251415 0.78100002
-0.19583635 0.38349372 0.78300005
-0.19412968 0.38496301 0.78600001
-0.20214131 0.38396972 0.77900004
-0.2002189 0.38495553 0.78100002
-0.19777751 0.38495553 0.78100002
-0.19583635 0.38594136 0.78300005
-0.19412968 0.38742003 0.78600001
-0.19600485 0.38392472 0.77400005
-0.19408557 0.38491678 0.77600002
-0.1924008 0.38640487 0.77900004
-0.07754945 0.38442075 0.77500004
-0.080178447 0.38784167 0.77700001
-0.07754945 0.38684338 0.77500004
-0.075126827 0.38684338 0.77500004
-0.072516575 0.38584509 0.77300006
-0.19876796 0.38474548 0.76600003
-0.1942322 0.38524777 0.76700002
-0.19233482 0.38625234 0.76900005
-0.082182072 0.38826147 0.77300006
-0.079456121 0.3867546 0.77000004
-0.076848999 0.38575003 0.76800001
-0.074448258 0.38575003 0.76800001
-0.071953699 0.38524777 0.76700002
-0.069465399 0.38474548 0.76600003
-0.083941787 0.38764536 0.76700002
-0.081544176 0.38764536 0.76700002
-0.079043366 0.38713998 0.76600003
-0.076348685 0.38562375 0.76300001
-0.073963568 0.38562375 0.76300001
-0.07139083 0.38461295 0.76100004
-0.068921283 0.38410756 0.76000005
-0.066545554 0.38410756 0.76000005
-0.083941787 0.39004299 0.76700002
-0.081544176 0.39004299 0.76700002
-0.079043366 0.38953447 0.76600003
-0.076348685 0.38800886 0.76300001
-0.073963568 0.38800886 0.76300001
-0.07139083 0.38699183 0.76100004
-0.068921283 0.38648328 0.76000005
-0.066545554 0.38648328 0.76000005
-0.08339458 0.38988233 0.76200002
-0.081012599 0.38988233 0.76200002
-0.07842423 0.38885903 0.76000005
-0.075848363 0.38783571 0.75800002
-0.073478878 0.38783571 0.75800002
-0.071015581 0.38732404 0.75700003
-0.068558544 0.38681239 0.75600004
-0.080481015 0.3896904 0.75700003
-0.077805087 0.38814604 0.75400001
-0.072897255 0.38711649 0.75200003
-0.070452712 0.38660172 0.75100005
-0.080481015 0.39205676 0.75700003
-0.077805087 0.39050302 0.75400001
-0.075247981 0.38946721 0.75200003
-0.072897255 0.38946721 0.75200003
-0.070452712 0.3889493 0.75100005
0.28206426 0.38936743 0.70500004
0.28426805 0.38936743 0.70500004
0.28647187 0.38936743 0.70500004
0.28826621 0.38881513 0.70400006
0.2904669 0.38881513 0.70400006
0.28206426 0.39157122 0.70500004
0.28426805 0.39157122 0.70500004
0.28647187 0.39157122 0.70500004
0.28826621 0.39101583 0.70400006
0.2904669 0.39101583 0.70400006
0.2926676 0.39101583 0.70400006
0.27866954 0.39209938 0.70200002
0.28046387 0.39154086 0.70100003
0.28265518 0.39154086 0.70100003
0.28484651 0.39154086 0.70100003
0.28703782 0.39154086 0.70100003
0.28881651 0.3909823 0.70000005
0.29100469 0.3909823 0.70000005
0.29319286 0.3909823 0.70000005
0.27866954 0.39429381 0.70200002
0.28046387 0.39373216 0.70100003
0.28265518 0.39373216 0.70100003
0.28484651 0.39373216 0.70100003
0.28703782 0.39373216 0.70100003
0.28881651 0.39317048 0.70000005
0.29100469 0.39317048 0.70000005
0.29319286 0.39317048 0.70000005
0.29580301 0.39373216 0.70100003
0.29799432 0.39373216 0.70100003
0.29975739 0.39317048 0.70000005
