# .PCD v0.7 - Point Cloud Data file format
VERSION 0.7
FIELDS x y z
SIZE 4 4 4
TYPE F F F
COUNT 1 1 1
WIDTH 1434
HEIGHT 1
VIEWPOINT 0 0 0 1 0 0 0
POINTS 1434
DATA ascii
0.67071766 0.41791257 0.93700004
0.67508459 0.41880462 0.93900007
0.67801988 0.41880462 0.93900007
0.68095517 0.41880462 0.93900007
0.68389046 0.41880462 0.93900007
0.68828863 0.41969663 0.94100004
0.69123012 0.41969663 0.94100004
0.69417167 0.41969663 0.94100004
0.69859487 0.42058864 0.94300002
0.70154262 0.42058864 0.94300002
0.70523751 0.42103466 0.94400007
0.70818841 0.42103466 0.94400007
0.71113932 0.42103466 0.94400007
0.71560311 0.42192668 0.94600004
0.71856028 0.42192668 0.94600004
0.72151744 0.42192668 0.94600004
0.72294301 0.42103466 0.94400007
0.72589397 0.42103466 0.94400007
0.72884488 0.42103466 0.94400007
0.73179579 0.42103466 0.94400007
0.73474669 0.42103466 0.94400007
0.7376976 0.42103466 0.94400007
0.74064851 0.42103466 0.94400007
0.74281168 0.42058864 0.94300002
0.74575949 0.42058864 0.94300002
0.74711937 0.41969663 0.94100004
0.75006086 0.41969663 0.94100004
0.75300241 0.41969663 0.94100004
0.75594395 0.41969663 0.94100004
0.75727254 0.41880462 0.93900007
0.76020783 0.41880462 0.93900007
0.76314312 0.41880462 0.93900007
0.76607841 0.41880462 0.93900007
0.7690137 0.41880462 0.93900007
0.77194899 0.41880462 0.93900007
0.77488428 0.41880462 0.93900007
0.77781951 0.41880462 0.93900007
0.7807548 0.41880462 0.93900007
0.78369009 0.41880462 0.93900007
0.78662539 0.41880462 0.93900007
0.78956074 0.41880462 0.93900007
0.79249603 0.41880462 0.93900007
0.79543132 0.41880462 0.93900007
0.80006701 0.41969663 0.94100004
0.80471522 0.42058864 0.94300002
0.80766302 0.42058864 0.94300002
0.81147045 0.42103466 0.94400007
0.81442136 0.42103466 0.94400007
0.81737226 0.42103466 0.94400007
0.82206112 0.42192668 0.94600004
0.82676256 0.42281872 0.94800007
0.82972598 0.42281872 0.94800007
0.8326894 0.42281872 0.94800007
0.83741575 0.42371073 0.95000005
0.84038544 0.42371073 0.95000005
0.84335512 0.42371073 0.95000005
0.84721559 0.42415673 0.95100003
0.85018843 0.42415673 0.95100003
0.85316122 0.42415673 0.95100003
0.85793453 0.42504877 0.95300007
0.86091357 0.42504877 0.95300007
0.86389261 0.42504877 0.95300007
0.86687171 0.42504877 0.95300007
0.86985075 0.42504877 0.95300007
0.87282979 0.42504877 0.95300007
0.87580884 0.42504877 0.95300007
0.8806321 0.42594078 0.95500004
0.8836174 0.42594078 0.95500004
0.8866027 0.42594078 0.95500004
0.889588 0.42594078 0.95500004
0.8925733 0.42594078 0.95500004
0.8955586 0.42594078 0.95500004
0.90042567 0.4268328 0.95700002
0.90341723 0.4268328 0.95700002
0.90640873 0.4268328 0.95700002
0.90940028 0.4268328 0.95700002
0.91239184 0.4268328 0.95700002
0.9153834 0.4268328 0.95700002
0.91837496 0.4268328 0.95700002
0.92136651 0.4268328 0.95700002
0.92242628 0.42594078 0.95500004
0.92541158 0.42594078 0.95500004
0.92839688 0.42594078 0.95500004
0.93138218 0.42594078 0.95500004
0.93436754 0.42594078 0.95500004
0.93735284 0.42594078 0.95500004
0.94033813 0.42594078 0.95500004
0.94332343 0.42594078 0.95500004
0.94630873 0.42594078 0.95500004
0.94929403 0.42594078 0.95500004
0.95227933 0.42594078 0.95500004
0.95526463 0.42594078 0.95500004
-0.76445585 0.34538656 0.76900005
-0.76205194 0.34538656 0.76900005
-0.75964808 0.34538656 0.76900005
-0.75724423 0.34538656 0.76900005
-0.75484037 0.34538656 0.76900005
-0.75243652 0.34538656 0.76900005
-0.75100797 0.34583569 0.77000004
-0.75054532 0.34673396 0.77200001
-0.74910122 0.34718311 0.77300006
-0.74668479 0.34718311 0.77300006
-0.75197107 0.3507762 0.78100002
-0.74952966 0.3507762 0.78100002
-0.74613172 0.35032707 0.78000003
-0.74369347 0.35032707 0.78000003
-0.7422055 0.3507762 0.78100002
-0.73976415 0.3507762 0.78100002
-0.73732275 0.3507762 0.78100002
-0.7329995 0.34987792 0.77900004
-0.73056442 0.34987792 0.77900004
-0.72812927 0.34987792 0.77900004
-0.72383094 0.34897965 0.77700001
-0.72140211 0.34897965 0.77700001
-0.71897322 0.34897965 0.77700001
-0.71654433 0.34897965 0.77700001
-0.71411544 0.34897965 0.77700001
-0.71168661 0.34897965 0.77700001
-0.70925772 0.34897965 0.77700001
-0.70864826 0.34987792 0.77900004
-0.70621312 0.34987792 0.77900004
-0.70377797 0.34987792 0.77900004
-0.70224315 0.35032707 0.78000003
-0.69980484 0.35032707 0.78000003
-0.6973666 0.35032707 0.78000003
-0.69581926 0.3507762 0.78100002
-0.69426572 0.35122535 0.78200006
-0.69182122 0.35122535 0.78200006
-0.69202137 0.35257274 0.78500003
-0.68956751 0.35257274 0.78500003
-0.68711358 0.35257274 0.78500003
-0.68465972 0.35257274 0.78500003
-0.68220586 0.35257274 0.78500003
-0.67975193 0.35257274 0.78500003
-0.67729807 0.35257274 0.78500003
-0.67484421 0.35257274 0.78500003
-0.67239028 0.35257274 0.78500003
-0.66993642 0.35257274 0.78500003
-0.66578197 0.3516745 0.78300005
-0.66333431 0.3516745 0.78300005
-0.66004264 0.35122535 0.78200006
-0.65759814 0.35122535 0.78200006
-0.65515363 0.35122535 0.78200006
-0.65270919 0.35122535 0.78200006
-0.65026468 0.35122535 0.78200006
-0.64782017 0.35122535 0.78200006
-0.64537561 0.35122535 0.78200006
-0.64375323 0.3516745 0.78300005
-0.64294368 0.35257274 0.78500003
-0.64048976 0.35257274 0.78500003
-0.63803589 0.35257274 0.78500003
-0.63639164 0.35302189 0.78600001
-0.63474125 0.35347104 0.78700006
-0.63228106 0.35347104 0.78700006
-0.62982094 0.35347104 0.78700006
-0.62815797 0.35392016 0.78800005
-0.62569469 0.35392016 0.78800005
-0.62323141 0.35392016 0.78800005
-0.62076819 0.35392016 0.78800005
-0.61830491 0.35392016 0.78800005
-0.61584163 0.35392016 0.78800005
-0.61337841 0.35392016 0.78800005
-0.6116904 0.35436931 0.78900003
-0.60922402 0.35436931 0.78900003
-0.60675764 0.35436931 0.78900003
-0.60582298 0.35526755 0.79100001
-0.60335034 0.35526755 0.79100001
-0.6008777 0.35526755 0.79100001
-0.59840506 0.35526755 0.79100001
-0.59593242 0.35526755 0.79100001
-0.59345978 0.35526755 0.79100001
-0.59173429 0.35571671 0.79200006
-0.58925855 0.35571671 0.79200006
-0.58678275 0.35571671 0.79200006
-0.58430701 0.35571671 0.79200006
-0.58183122 0.35571671 0.79200006
-0.57935548 0.35571671 0.79200006
-0.57687974 0.35571671 0.79200006
-0.57440394 0.35571671 0.79200006
-0.5719282 0.35571671 0.79200006
-0.57017142 0.35616586 0.79300004
-0.56769252 0.35616586 0.79300004
-0.56592637 0.35661498 0.79400003
-0.56344438 0.35661498 0.79400003
-0.56237537 0.35751328 0.79600006
-0.55988711 0.35751328 0.79600006
-0.55739886 0.35751328 0.79600006
-0.55491054 0.35751328 0.79600006
-0.55242229 0.35751328 0.79600006
-0.54993403 0.35751328 0.79600006
-0.54813343 0.3579624 0.79700005
-0.54632664 0.35841152 0.79800004
-0.54383212 0.35841152 0.79800004
-0.54133761 0.35841152 0.79800004
-0.5388431 0.35841152 0.79800004
-0.53702068 0.35886067 0.79900002
-0.53452301 0.35886067 0.79900002
-0.5320254 0.35886067 0.79900002
-0.53085327 0.35975894 0.80100006
-0.52834934 0.35975894 0.80100006
-0.52584547 0.35975894 0.80100006
-0.52334154 0.35975894 0.80100006
-0.52083766 0.35975894 0.80100006
-0.51833373 0.35975894 0.80100006
-0.51582986 0.35975894 0.80100006
-0.51204419 0.35886067 0.79900002
-0.50954658 0.35886067 0.79900002
-0.50831819 0.35975894 0.80100006
-0.50581425 0.35975894 0.80100006
-0.50205362 0.35886067 0.79900002
-0.49955598 0.35886067 0.79900002
-0.49705833 0.35886067 0.79900002
-0.49456066 0.35886067 0.79900002
-0.49206299 0.35886067 0.79900002
-0.48956534 0.35886067 0.79900002
-0.4870677 0.35886067 0.79900002
-0.48578301 0.35975894 0.80100006
-0.48388246 0.36020809 0.80200005
-0.48137543 0.36020809 0.80200005
-0.47886842 0.36020809 0.80200005
-0.47695535 0.36065722 0.80300003
-0.47444519 0.36065722 0.80300003
-0.47193503 0.36065722 0.80300003
-0.4741016 0.36425033 0.81100005
-0.47156647 0.36425033 0.81100005
-0.4690313 0.36425033 0.81100005
-0.46649614 0.36425033 0.81100005
-0.46396098 0.36425033 0.81100005
-0.46085688 0.36380118 0.81000006
-0.45832485 0.36380118 0.81000006
-0.45466736 0.36290291 0.80800003
-0.45214158 0.36290291 0.80800003
-0.44905937 0.36245376 0.80700004
-0.4448767 0.36110634 0.80400002
-0.44236338 0.36110634 0.80400002
-0.43875596 0.36020809 0.80200005
-0.43407315 0.35841152 0.79800004
-0.43157861 0.35841152 0.79800004
-0.4258579 0.35571671 0.79200006
-0.42338213 0.35571671 0.79200006
-0.35501423 0.31484523 0.70100003
-0.34929973 0.31170124 0.69400001
-0.3471303 0.31170124 0.69400001
-0.34148145 0.3085573 0.68700004
-0.33735815 0.30676076 0.68300003
-0.33522314 0.30676076 0.68300003
-0.33064967 0.30451506 0.67800003
-0.32707658 0.30316764 0.67500001
-0.32496655 0.30316764 0.67500001
-0.3209433 0.3013711 0.671
-0.31742027 0.3000237 0.66800004
-0.31533211 0.3000237 0.66800004
-0.31277505 0.29957455 0.66700006
-0.31069002 0.29957455 0.66700006
-0.30860499 0.29957455 0.66700006
-0.3060604 0.2991254 0.66600001
-0.3039785 0.2991254 0.66600001
-0.3018966 0.2991254 0.66600001
-0.29981473 0.2991254 0.66600001
-0.29862693 0.3000237 0.66800004
-0.2965388 0.3000237 0.66800004
-0.29489145 0.30047283 0.66900003
-0.29280016 0.30047283 0.66900003
-0.29157797 0.3013711 0.671
-0.28991187 0.30182025 0.67200005
-0.28781122 0.30182025 0.67200005
-0.28613573 0.30226937 0.67300004
-0.28445399 0.30271852 0.67400002
-0.28234708 0.30271852 0.67400002
-0.28065595 0.30316764 0.67500001
-0.27854592 0.30316764 0.67500001
-0.27643591 0.30316764 0.67500001
-0.27432588 0.30316764 0.67500001
-0.27261916 0.30361679 0.67600006
-0.27090615 0.30406594 0.67700005
-0.26878986 0.30406594 0.67700005
-0.26667356 0.30406594 0.67700005
-0.26494807 0.30451506 0.67800003
-0.26282865 0.30451506 0.67800003
-0.26109377 0.30496418 0.67900002
-0.25935265 0.30541334 0.68000001
-0.25798354 0.30631161 0.68200004
-0.25585166 0.30631161 0.68200004
-0.25409174 0.30676076 0.68300003
-0.25232559 0.30720988 0.68400002
-0.25018746 0.30720988 0.68400002
-0.24841195 0.30765903 0.68500006
-0.24663016 0.30810818 0.68600005
-0.24448575 0.30810818 0.68600005
-0.24304786 0.30900642 0.68800002
-0.24159749 0.30990472 0.69000006
-0.23978758 0.31035385 0.69100004
-0.23762754 0.31035385 0.69100004
-0.23580825 0.310803 0.69200003
-0.23432036 0.31170124 0.69400001
-0.23215093 0.31170124 0.69400001
-0.23031291 0.31215042 0.69500005
-0.22846863 0.31259954 0.69600004
-0.22629295 0.31259954 0.69600004
-0.22443926 0.31304866 0.69700003
-0.22257935 0.31349781 0.69800001
-0.22102894 0.31439608 0.70000005
-0.21884076 0.31439608 0.70000005
-0.21696208 0.31484523 0.70100003
-0.21507716 0.31529436 0.70200002
-0.21288273 0.31529436 0.70200002
-0.21098842 0.31574348 0.70300001
-0.20908788 0.31619266 0.70400006
-0.2068872 0.31619266 0.70400006
-0.20497727 0.31664178 0.70500004
-0.20306106 0.3170909 0.70600003
-0.20113862 0.31754005 0.70700002
-0.19892856 0.31754005 0.70700002
-0.1967185 0.31754005 0.70700002
-0.19478357 0.31798917 0.708
-0.19257037 0.31798917 0.708
-0.19035719 0.31798917 0.708
-0.18840976 0.31843832 0.70900005
-0.18619345 0.31843832 0.70900005
-0.18397714 0.31843832 0.70900005
-0.18176083 0.31843832 0.70900005
-0.17979774 0.31888747 0.71000004
-0.1775783 0.31888747 0.71000004
-0.17535888 0.31888747 0.71000004
-0.17313942 0.31888747 0.71000004
-0.17092 0.31888747 0.71000004
-0.16893816 0.31933659 0.71100003
-0.16695008 0.31978571 0.71200001
-0.16472439 0.31978571 0.71200001
-0.1624987 0.31978571 0.71200001
-0.16049811 0.32023486 0.71300006
-0.1582693 0.32023486 0.71300006
-0.15625934 0.32068402 0.71400005
-0.15445884 0.32158229 0.71600002
-0.15243325 0.32203141 0.71700001
-0.15019192 0.32203141 0.71700001
-0.14815696 0.32248056 0.71800005
-0.14631894 0.32337883 0.72000003
-0.14406826 0.32337883 0.72000003
-0.14201452 0.32382795 0.72100002
-0.13995455 0.3242771 0.72200006
-0.13769759 0.3242771 0.72200006
-0.13562824 0.32472625 0.72300005
-0.13355263 0.32517537 0.72400004
-0.13147077 0.3256245 0.72500002
-0.12920444 0.3256245 0.72500002
-0.1269381 0.3256245 0.72500002
-0.12484374 0.32607365 0.72600001
-0.12257428 0.32607365 0.72600001
-0.12080197 0.32742107 0.72900003
-0.11868572 0.32787019 0.73000002
-0.11640375 0.32787019 0.73000002
-0.11427813 0.32831931 0.73100001
-0.11214626 0.32876849 0.73200005
-0.11015821 0.32966673 0.73400003
-0.10786375 0.32966673 0.73400003
-0.10571311 0.33011588 0.73500001
-0.10369693 0.33101416 0.73700005
-0.10139309 0.33101416 0.73700005
-0.099223703 0.33146331 0.73800004
-0.097179383 0.33236155 0.74000001
-0.094866164 0.33236155 0.74000001
-0.092678018 0.33281073 0.74100006
-0.090605572 0.33370897 0.74300003
-0.088520616 0.33460727 0.74500006
-0.086191773 0.33460727 0.74500006
-0.084088057 0.33550555 0.74700004
-0.081862397 0.33595467 0.74800003
-0.079524174 0.33595467 0.74800003
-0.077185951 0.33595467 0.74800003
-0.074847728 0.33595467 0.74800003
-0.072509505 0.33595467 0.74800003
-0.070265085 0.33640379 0.74900001
-0.068105109 0.33730209 0.75100005
-0.065845072 0.33775121 0.75200003
-0.06349434 0.33775121 0.75200003
-0.061224919 0.33820036 0.75300002
-0.058949247 0.33864948 0.75400001
-0.056592263 0.33864948 0.75400001
-0.05437915 0.33954778 0.75600004
-0.05215352 0.34044603 0.75800002
-0.049784038 0.34044603 0.75800002
-0.047477111 0.34089521 0.75900006
-0.045223352 0.34179345 0.76100004
-0.04290079 0.3422426 0.76200002
-0.040518798 0.3422426 0.76200002
-0.038186863 0.34269172 0.76300001
-0.035895593 0.34359002 0.76500005
-0.033504225 0.34359002 0.76500005
-0.031194199 0.34448826 0.76700002
-0.028796583 0.34448826 0.76700002
-0.026398966 0.34448826 0.76700002
-0.024032639 0.34493741 0.76800001
-0.021660063 0.34538656 0.76900005
-0.019256195 0.34538656 0.76900005
-0.016852323 0.34538656 0.76900005
-0.014467243 0.34583569 0.77000004
-0.012060246 0.34583569 0.77000004
-0.0096532516 0.34583569 0.77000004
-0.007265077 0.34673396 0.77200001
-0.0048518297 0.34673396 0.77200001
-0.002438582 0.34673396 0.77200001
-2.5334386e-05 0.34673396 0.77200001
0.0023910063 0.34718311 0.77300006
0.00480738 0.34718311 0.77300006
0.0072330986 0.34763226 0.77400005
0.0096525988 0.34763226 0.77400005
0.012087695 0.34808138 0.77500004
0.01451032 0.34808138 0.77500004
0.016954795 0.3485305 0.77600002
0.01940552 0.34897965 0.77700001
0.021834398 0.34897965 0.77700001
0.024263276 0.34897965 0.77700001
0.026760859 0.34987792 0.77900004
0.02919599 0.34987792 0.77900004
0.031671721 0.35032707 0.78000003
0.034153707 0.3507762 0.78100002
0.036595091 0.3507762 0.78100002
0.039136436 0.3516745 0.78300005
0.041690286 0.35257274 0.78500003
0.044200405 0.35302189 0.78600001
0.046657417 0.35302189 0.78600001
0.049239404 0.35392016 0.78800005
0.051768277 0.35436931 0.78900003
0.054234665 0.35436931 0.78900003
0.056916654 0.35571671 0.79200006
0.059467409 0.35616586 0.79300004
0.061946299 0.35616586 0.79300004
0.064668924 0.35751328 0.79600006
0.067241557 0.3579624 0.79700005
0.069820456 0.35841152 0.79800004
0.072314978 0.35841152 0.79800004
0.074903242 0.35886067 0.79900002
0.077594638 0.35975894 0.80100006
0.08009854 0.35975894 0.80100006
0.082705557 0.36020809 0.80200005
0.085318841 0.36065722 0.80300003
0.087828994 0.36065722 0.80300003
0.09067665 0.36200464 0.80600005
0.093311809 0.36245376 0.80700004
0.095953219 0.36290291 0.80800003
0.098478995 0.36290291 0.80800003
0.1013798 0.36425033 0.81100005
0.10417122 0.36514857 0.81300002
0.10671263 0.36514857 0.81300002
0.1096572 0.366496 0.81600004
0.11262053 0.36784342 0.81900007
0.11518069 0.36784342 0.81900007
0.11802838 0.36874169 0.82100004
0.12118235 0.37053823 0.82500005
0.12421132 0.37188566 0.82800007
0.12679963 0.37188566 0.82800007
0.12985672 0.37323305 0.83100003
0.13277319 0.37413135 0.83300006
0.13537711 0.37413135 0.83300006
0.13864361 0.37592787 0.83700001
0.14159758 0.37682617 0.83900005
0.14473598 0.37817359 0.84200007
0.14736804 0.37817359 0.84200007
0.15017825 0.37862271 0.84300005
0.15335725 0.3799701 0.84600002
0.15600182 0.3799701 0.84600002
0.15883394 0.38041928 0.84700006
0.16205357 0.38176668 0.85000002
0.16471064 0.38176668 0.85000002
0.16756462 0.3822158 0.85100001
0.17022482 0.3822158 0.85100001
0.17329133 0.3831141 0.85300004
0.17595778 0.3831141 0.85300004
0.17862423 0.3831141 0.85300004
0.18150321 0.38356322 0.85400003
0.18417278 0.38356322 0.85400003
0.18684237 0.38356322 0.85400003
0.18995577 0.38446152 0.85600007
0.1926316 0.38446152 0.85600007
0.19530743 0.38446152 0.85600007
0.19821455 0.38491064 0.85700005
0.20089349 0.38491064 0.85700005
0.20357245 0.38491064 0.85700005
0.2069734 0.38625804 0.86000001
0.20966174 0.38625804 0.86000001
0.21235007 0.38625804 0.86000001
0.21528846 0.38670719 0.86100006
0.21873941 0.38805458 0.86400002
0.22144024 0.38805458 0.86400002
0.22491935 0.389402 0.86700004
0.22841722 0.39074942 0.87000006
0.23113683 0.39074942 0.87000006
0.23466282 0.39209682 0.87300003
0.23739178 0.39209682 0.87300003
0.24094592 0.39344424 0.87600005
0.24368426 0.39344424 0.87600005
0.24698521 0.39434251 0.87800002
0.25058311 0.39568993 0.88100004
0.25333709 0.39568993 0.88100004
0.25638172 0.39613906 0.88200003
0.25913882 0.39613906 0.88200003
0.26189592 0.39613906 0.88200003
0.26525319 0.39703736 0.88400006
0.26831973 0.39748648 0.88500005
0.27169883 0.39838475 0.88700002
0.27447155 0.39838475 0.88700002
0.27755687 0.3988339 0.88800007
0.28096411 0.39973217 0.89000005
0.28374621 0.39973217 0.89000005
0.2871722 0.40063041 0.89200002
0.28996056 0.40063041 0.89200002
0.29274893 0.40063041 0.89200002
0.29586861 0.4010796 0.89300007
0.29932898 0.40197784 0.89500004
0.30212674 0.40197784 0.89500004
0.30492449 0.40197784 0.89500004
0.30772224 0.40197784 0.89500004
0.31051996 0.40197784 0.89500004
0.31331772 0.40197784 0.89500004
0.31611544 0.40197784 0.89500004
0.31891319 0.40197784 0.89500004
0.32171091 0.40197784 0.89500004
0.32450867 0.40197784 0.89500004
0.32730639 0.40197784 0.89500004
0.32936648 0.4010796 0.89300007
0.332158 0.4010796 0.89300007
0.33494949 0.4010796 0.89300007
0.33774099 0.4010796 0.89300007
0.34053245 0.4010796 0.89300007
0.34332395 0.4010796 0.89300007
0.34572783 0.40063041 0.89200002
0.3485162 0.40063041 0.89200002
0.35130456 0.40063041 0.89200002
0.35448989 0.4010796 0.89300007
0.35728139 0.4010796 0.89300007
0.36007288 0.4010796 0.89300007
0.36367705 0.40197784 0.89500004
0.36647481 0.40197784 0.89500004
0.36927256 0.40197784 0.89500004
0.372486 0.40242699 0.89600003
0.37528688 0.40242699 0.89600003
0.37808773 0.40242699 0.89600003
0.38088858 0.40242699 0.89600003
0.38497415 0.40377441 0.89900005
0.38778439 0.40377441 0.89900005
0.39059463 0.40377441 0.89900005
0.39515528 0.40557095 0.90300006
0.39797807 0.40557095 0.90300006
0.40124467 0.40602008 0.90400004
0.40541148 0.4073675 0.90700006
0.40824673 0.4073675 0.90700006
0.41198844 0.40826577 0.90900004
0.41574267 0.40916407 0.91100007
0.41859043 0.40916407 0.91100007
0.42190078 0.40961319 0.91200006
0.42475167 0.40961319 0.91200006
0.42854026 0.41051146 0.91400003
0.43139741 0.41051146 0.91400003
0.43425456 0.41051146 0.91400003
0.43711168 0.41051146 0.91400003
0.43900609 0.40961319 0.91200006
0.44185698 0.40961319 0.91200006
0.44470787 0.40961319 0.91200006
0.44755873 0.40961319 0.91200006
0.45040962 0.40961319 0.91200006
0.45326051 0.40961319 0.91200006
0.45561129 0.40916407 0.91100007
0.45745254 0.40826577 0.90900004
0.46029404 0.40826577 0.90900004
0.46313554 0.40826577 0.90900004
0.46597704 0.40826577 0.90900004
0.46985006 0.40916407 0.91100007
0.47425443 0.41051146 0.91400003
0.47711158 0.41051146 0.91400003
0.4799687 0.41051146 0.91400003
0.48388237 0.41140974 0.91600007
0.48674574 0.41140974 0.91600007
0.49014363 0.41185889 0.91700006
0.4940854 0.41275713 0.91900003
0.49695817 0.41275713 0.91900003
0.50091875 0.41365543 0.92100006
0.50434476 0.41410455 0.92200005
0.50722688 0.41410455 0.92200005
0.51010901 0.41410455 0.92200005
0.52078062 0.42039248 0.93600005
0.524266 0.4208416 0.93700004
0.52663249 0.42039248 0.93600005
0.52955836 0.42039248 0.93600005
0.53248429 0.42039248 0.93600005
0.53312212 0.41859594 0.93200004
0.53546035 0.41814679 0.93100005
0.53837061 0.41814679 0.93100005
0.5401181 0.41724852 0.92900002
0.54126859 0.41590112 0.92600006
0.54416323 0.41590112 0.92600006
0.54705787 0.41590112 0.92600006
0.54876471 0.41500282 0.92400002
0.54986203 0.41365543 0.92100006
0.55274105 0.41365543 0.92100006
0.5544135 0.41275713 0.91900003
0.5572862 0.41275713 0.91900003
0.56015897 0.41275713 0.91900003
0.56303173 0.41275713 0.91900003
0.5659045 0.41275713 0.91900003
0.57001513 0.41365543 0.92100006
0.57289416 0.41365543 0.92100006
0.57577312 0.41365543 0.92100006
0.57928044 0.41410455 0.92200005
0.58216262 0.41410455 0.92200005
0.58631384 0.41500282 0.92400002
0.59047759 0.41590112 0.92600006
0.59401304 0.41635025 0.92700005
0.59691077 0.41635025 0.92700005
0.60110259 0.41724852 0.92900002
0.60530698 0.41814679 0.93100005
0.6082173 0.41814679 0.93100005
0.61178398 0.41859594 0.93200004
0.61469734 0.41859594 0.93200004
0.61761075 0.41859594 0.93200004
0.62185574 0.41949418 0.93400002
0.62477541 0.41949418 0.93400002
0.62769502 0.41949418 0.93400002
0.6306147 0.41949418 0.93400002
0.63217777 0.41859594 0.93200004
0.63509119 0.41859594 0.93200004
0.63732004 0.41814679 0.93100005
0.63885492 0.41724852 0.92900002
0.64175892 0.41724852 0.92900002
0.64327508 0.41635025 0.92700005
0.64617288 0.41635025 0.92700005
0.64907068 0.41635025 0.92700005
0.65126514 0.41590112 0.92600006
0.65415978 0.41590112 0.92600006
0.65705448 0.41590112 0.92600006
0.65994912 0.41590112 0.92600006
0.66284376 0.41590112 0.92600006
0.6657384 0.41590112 0.92600006
0.66863304 0.41590112 0.92600006
0.67152768 0.41590112 0.92600006
0.67515063 0.41635025 0.92700005
0.67804837 0.41635025 0.92700005
0.68094617 0.41635025 0.92700005
0.6853193 0.41724852 0.92900002
0.68970501 0.41814679 0.93100005
0.69261527 0.41814679 0.93100005
0.69627261 0.41859594 0.93200004
0.7006864 0.41949418 0.93400002
0.70360607 0.41949418 0.93400002
0.70652568 0.41949418 0.93400002
0.70944536 0.41949418 0.93400002
0.71236503 0.41949418 0.93400002
0.71528465 0.41949418 0.93400002
0.7197423 0.42039248 0.93600005
0.72266823 0.42039248 0.93600005
0.72404367 0.41949418 0.93400002
0.72696334 0.41949418 0.93400002
0.72988296 0.41949418 0.93400002
0.73280263 0.41949418 0.93400002
0.7357223 0.41949418 0.93400002
0.73864192 0.41949418 0.93400002
0.73917973 0.41814679 0.93100005
0.74208999 0.41814679 0.93100005
0.74500024 0.41814679 0.93100005
0.74791056 0.41814679 0.93100005
0.74920785 0.41724852 0.92900002
0.75211185 0.41724852 0.92900002
0.75501591 0.41724852 0.92900002
0.75628823 0.41635025 0.92700005
0.75918603 0.41635025 0.92700005
0.76208377 0.41635025 0.92700005
0.76498157 0.41635025 0.92700005
0.76787931 0.41635025 0.92700005
0.77077711 0.41635025 0.92700005
0.77367485 0.41635025 0.92700005
0.77824807 0.41724852 0.92900002
0.78115213 0.41724852 0.92900002
0.78405619 0.41724852 0.92900002
0.78865445 0.41814679 0.93100005
0.7924149 0.41859594 0.93200004
0.79532832 0.41859594 0.93200004
0.79995465 0.41949418 0.93400002
0.80287433 0.41949418 0.93400002
0.8075195 0.42039248 0.93600005
0.81044537 0.42039248 0.93600005
0.81424028 0.4208416 0.93700004
0.81891352 0.42173991 0.93900007
0.82184881 0.42173991 0.93900007
0.8247841 0.42173991 0.93900007
0.82948232 0.42263818 0.94100004
0.83242387 0.42263818 0.94100004
0.83536541 0.42263818 0.94100004
0.84008867 0.42353642 0.94300002
0.84303647 0.42353642 0.94300002
0.84598422 0.42353642 0.94300002
0.8498323 0.42398557 0.94400007
0.8527832 0.42398557 0.94400007
0.85573411 0.42398557 0.94400007
0.85868508 0.42398557 0.94400007
0.86163598 0.42398557 0.94400007
0.86458695 0.42398557 0.94400007
0.86753786 0.42398557 0.94400007
0.87233299 0.42488384 0.94600004
0.87529016 0.42488384 0.94600004
0.87824732 0.42488384 0.94600004
0.889588 0.42892608 0.95500004
0.8925733 0.42892608 0.95500004
0.8955586 0.42892608 0.95500004
0.90042567 0.42982435 0.95700002
0.90341723 0.42982435 0.95700002
0.90640873 0.42982435 0.95700002
0.90940028 0.42982435 0.95700002
0.91239184 0.42982435 0.95700002
0.9153834 0.42982435 0.95700002
0.91837496 0.42982435 0.95700002
0.92136651 0.42982435 0.95700002
0.92242628 0.42892608 0.95500004
0.92541158 0.42892608 0.95500004
0.92839688 0.42892608 0.95500004
0.93138218 0.42892608 0.95500004
0.93436754 0.42892608 0.95500004
0.93735284 0.42892608 0.95500004
0.94033813 0.42892608 0.95500004
0.94332343 0.42892608 0.95500004
0.94630873 0.42892608 0.95500004
0.94929403 0.42892608 0.95500004
0.95227933 0.42892608 0.95500004
0.95526463 0.42892608 0.95500004
-0.76445585 0.34779042 0.76900005
-0.76205194 0.34779042 0.76900005
-0.75964808 0.34779042 0.76900005
-0.75724423 0.34779042 0.76900005
-0.75484037 0.34779042 0.76900005
-0.75243652 0.34779042 0.76900005
-0.75100797 0.3482427 0.77000004
-0.75054532 0.3491472 0.77200001
-0.74910122 0.34959948 0.77300006
-0.74668479 0.34959948 0.77300006
-0.74426842 0.34959948 0.77300006
-0.74281174 0.35005173 0.77400005
-0.74039227 0.35005173 0.77400005
-0.73797274 0.35005173 0.77400005
-0.73555326 0.35005173 0.77400005
-0.73313379 0.35005173 0.77400005
-0.73071426 0.35005173 0.77400005
-0.72829479 0.35005173 0.77400005
-0.72493744 0.34959948 0.77300006
-0.72158635 0.3491472 0.77200001
-0.71731001 0.3482427 0.77000004
-0.714903 0.3482427 0.77000004
-0.71157068 0.34779042 0.76900005
-0.70916682 0.34779042 0.76900005
-0.70676297 0.34779042 0.76900005
-0.70435911 0.34779042 0.76900005
-0.7019552 0.34779042 0.76900005
-0.70046103 0.3482427 0.77000004
-0.69805402 0.3482427 0.77000004
-0.69745392 0.3491472 0.77200001
-0.69504064 0.3491472 0.77200001
-0.69262737 0.3491472 0.77200001
-0.6902141 0.3491472 0.77200001
-0.68780088 0.3491472 0.77200001
-0.68716329 0.35005173 0.77400005
-0.68474376 0.35005173 0.77400005
-0.68320584 0.35050401 0.77500004
-0.68078321 0.35050401 0.77500004
-0.67836058 0.35050401 0.77500004
-0.67593795 0.35050401 0.77500004
-0.67351532 0.35050401 0.77500004
-0.67109269 0.35050401 0.77500004
-0.66867006 0.35050401 0.77500004
-0.66624743 0.35050401 0.77500004
-0.66382486 0.35050401 0.77500004
-0.66140223 0.35050401 0.77500004
-0.65812927 0.35005173 0.77400005
-0.6557098 0.35005173 0.77400005
-0.65244627 0.34959948 0.77300006
-0.6500299 0.34959948 0.77300006
-0.64761353 0.34959948 0.77300006
-0.64519715 0.34959948 0.77300006
-0.64278078 0.34959948 0.77300006
-0.64119279 0.35005173 0.77400005
-0.63877326 0.35005173 0.77400005
-0.63717592 0.35050401 0.77500004
-0.63557231 0.35095626 0.77600002
-0.63396245 0.35140851 0.77700001
-0.63153362 0.35140851 0.77700001
-0.62910473 0.35140851 0.77700001
-0.62828892 0.35231307 0.77900004
-0.62585384 0.35231307 0.77900004
-0.62421894 0.35276532 0.78000003
-0.62257785 0.35321757 0.78100002
-0.6201365 0.35321757 0.78100002
-0.61769509 0.35321757 0.78100002
-0.61525375 0.35321757 0.78100002
-0.61281234 0.35321757 0.78100002
-0.61037093 0.35321757 0.78100002
-0.60792959 0.35321757 0.78100002
-0.60626352 0.35366985 0.78200006
-0.60381901 0.35366985 0.78200006
-0.60214353 0.3541221 0.78300005
-0.59969586 0.3541221 0.78300005
-0.59724826 0.3541221 0.78300005
-0.59480059 0.3541221 0.78300005
-0.59235293 0.3541221 0.78300005
-0.58990532 0.3541221 0.78300005
-0.58745766 0.3541221 0.78300005
-0.58501005 0.3541221 0.78300005
-0.58256239 0.3541221 0.78300005
-0.58011478 0.3541221 0.78300005
-0.57766718 0.3541221 0.78300005
-0.57521951 0.3541221 0.78300005
-0.57277191 0.3541221 0.78300005
-0.57032424 0.3541221 0.78300005
-0.56932712 0.35502663 0.78500003
-0.56687325 0.35502663 0.78500003
-0.56441933 0.35502663 0.78500003
-0.56196547 0.35502663 0.78500003
-0.5595116 0.35502663 0.78500003
-0.55776733 0.35547888 0.78600001
-0.55531031 0.35547888 0.78600001
-0.55988711 0.36000153 0.79600006
-0.55739886 0.36000153 0.79600006
-0.55491054 0.36000153 0.79600006
-0.55242229 0.36000153 0.79600006
-0.54993403 0.36000153 0.79600006
-0.54813343 0.36045378 0.79700005
-0.54632664 0.36090606 0.79800004
-0.54383212 0.36090606 0.79800004
-0.54133761 0.36090606 0.79800004
-0.5388431 0.36090606 0.79800004
-0.53702068 0.36135831 0.79900002
-0.53452301 0.36135831 0.79900002
-0.5320254 0.36135831 0.79900002
-0.53085327 0.36226285 0.80100006
-0.52834934 0.36226285 0.80100006
-0.52584547 0.36226285 0.80100006
-0.52334154 0.36226285 0.80100006
-0.52083766 0.36226285 0.80100006
-0.51833373 0.36226285 0.80100006
-0.51582986 0.36226285 0.80100006
-0.51204419 0.36135831 0.79900002
-0.50954658 0.36135831 0.79900002
-0.50831819 0.36226285 0.80100006
-0.50581425 0.36226285 0.80100006
-0.50205362 0.36135831 0.79900002
-0.49955598 0.36135831 0.79900002
-0.49705833 0.36135831 0.79900002
-0.49456066 0.36135831 0.79900002
-0.49206299 0.36135831 0.79900002
-0.48956534 0.36135831 0.79900002
-0.4870677 0.36135831 0.79900002
-0.48578301 0.36226285 0.80100006
-0.48388246 0.36271513 0.80200005
-0.48137543 0.36271513 0.80200005
-0.47886842 0.36271513 0.80200005
-0.47695535 0.36316738 0.80300003
-0.47444519 0.36316738 0.80300003
-0.47193503 0.36316738 0.80300003
-0.4694249 0.36316738 0.80300003
-0.46749619 0.36361963 0.80400002
-0.46498293 0.36361963 0.80400002
-0.46189445 0.36316738 0.80300003
-0.45938429 0.36316738 0.80300003
-0.45687413 0.36316738 0.80300003
-0.45379817 0.36271513 0.80200005
-0.45129114 0.36271513 0.80200005
-0.44822454 0.36226285 0.80100006
-0.4446077 0.36135831 0.79900002
-0.44155675 0.36090606 0.79800004
-0.43906218 0.36090606 0.79800004
-0.43437934 0.359097 0.79400003
-0.43026546 0.35774019 0.79100001
-0.42779282 0.35774019 0.79100001
-0.42209399 0.35502663 0.78500003
-0.41536352 0.35140851 0.77700001
-0.41293463 0.35140851 0.77700001
-0.40416592 0.34598136 0.76500005
-0.40177456 0.34598136 0.76500005
-0.390508 0.3382929 0.74800003
-0.37934774 0.3306044 0.73100001
-0.37706265 0.3306044 0.73100001
-0.37477759 0.3306044 0.73100001
-0.35501423 0.31703651 0.70100003
-0.34929973 0.31387067 0.69400001
-0.3471303 0.31387067 0.69400001
-0.34148145 0.31070483 0.68700004
-0.33735815 0.3088958 0.68300003
-0.33522314 0.3088958 0.68300003
-0.33064967 0.30663446 0.67800003
-0.32707658 0.30527768 0.67500001
-0.32496655 0.30527768 0.67500001
-0.3209433 0.30346861 0.671
-0.31742027 0.30211183 0.66800004
-0.31533211 0.30211183 0.66800004
-0.31324396 0.30211183 0.66800004
-0.31069002 0.30165958 0.66700006
-0.30860499 0.30165958 0.66700006
-0.3060604 0.3012073 0.66600001
-0.3039785 0.3012073 0.66600001
-0.30234993 0.30165958 0.66700006
-0.30071509 0.30211183 0.66800004
-0.29862693 0.30211183 0.66800004
-0.2965388 0.30211183 0.66800004
-0.29489145 0.30256408 0.66900003
-0.29280016 0.30256408 0.66900003
-0.29157797 0.30346861 0.671
-0.28991187 0.30392089 0.67200005
-0.28781122 0.30392089 0.67200005
-0.28613573 0.30437315 0.67300004
-0.28445399 0.30482543 0.67400002
-0.28276598 0.30527768 0.67500001
-0.28065595 0.30527768 0.67500001
-0.27854592 0.30527768 0.67500001
-0.27643591 0.30527768 0.67500001
-0.27432588 0.30527768 0.67500001
-0.27261916 0.30572996 0.67600006
-0.27090615 0.30618221 0.67700005
-0.26878986 0.30618221 0.67700005
-0.26667356 0.30618221 0.67700005
-0.26533884 0.30708674 0.67900002
-0.26321632 0.30708674 0.67900002
-0.26109377 0.30708674 0.67900002
-0.25973406 0.30799127 0.68100005
-0.25798354 0.30844352 0.68200004
-0.25585166 0.30844352 0.68200004
-0.25409174 0.3088958 0.68300003
-0.25269452 0.30980033 0.68500006
-0.25055325 0.30980033 0.68500006
-0.24841195 0.30980033 0.68500006
-0.24698967 0.31070483 0.68700004
-0.24484213 0.31070483 0.68700004
-0.24340113 0.31160936 0.68900001
-0.24159749 0.31206164 0.69000006
-0.2401346 0.31296614 0.69200003
-0.23797143 0.31296614 0.69200003
-0.23614901 0.31341842 0.69300002
-0.23432036 0.31387067 0.69400001
-0.23215093 0.31387067 0.69400001
-0.23031291 0.31432295 0.69500005
-0.22846863 0.3147752 0.69600004
-0.22629295 0.3147752 0.69600004
-0.22443926 0.31522748 0.69700003
-0.22289824 0.31613201 0.69900006
-0.22102894 0.31658426 0.70000005
-0.21884076 0.31658426 0.70000005
-0.21727158 0.31748879 0.70200002
-0.21507716 0.31748879 0.70200002
-0.21288273 0.31748879 0.70200002
-0.21098842 0.31794104 0.70300001
-0.20908788 0.31839332 0.70400006
-0.2068872 0.31839332 0.70400006
-0.20497727 0.31884557 0.70500004
-0.20306106 0.31929785 0.70600003
-0.20113862 0.3197501 0.70700002
-0.19892856 0.3197501 0.70700002
-0.1967185 0.3197501 0.70700002
-0.19478357 0.32020235 0.708
-0.19257037 0.32020235 0.708
-0.19035719 0.32020235 0.708
-0.18840976 0.32065463 0.70900005
-0.18619345 0.32065463 0.70900005
-0.18397714 0.32065463 0.70900005
-0.18176083 0.32065463 0.70900005
-0.17979774 0.32110688 0.71000004
-0.1775783 0.32110688 0.71000004
-0.17535888 0.32110688 0.71000004
-0.17338328 0.32155916 0.71100003
-0.17116073 0.32155916 0.71100003
-0.16917576 0.32201141 0.71200001
-0.16695008 0.32201141 0.71200001
-0.16472439 0.32201141 0.71200001
-0.1624987 0.32201141 0.71200001
-0.16072321 0.32291594 0.71400005
-0.15849128 0.32291594 0.71400005
-0.15625934 0.32291594 0.71400005
-0.15445884 0.32382047 0.71600002
-0.15243325 0.32427272 0.71700001
-0.15019192 0.32427272 0.71700001
-0.14815696 0.324725 0.71800005
-0.14631894 0.32562953 0.72000003
-0.14406826 0.32562953 0.72000003
-0.14201452 0.32608178 0.72100002
-0.13995455 0.32653406 0.72200006
-0.13769759 0.32653406 0.72200006
-0.13562824 0.32698631 0.72300005
-0.13355263 0.32743856 0.72400004
-0.13147077 0.32789084 0.72500002
-0.12920444 0.32789084 0.72500002
-0.1269381 0.32789084 0.72500002
-0.12484374 0.32834309 0.72600001
-0.12257428 0.32834309 0.72600001
-0.12080197 0.3296999 0.72900003
-0.11868572 0.33015215 0.73000002
-0.11640375 0.33015215 0.73000002
-0.11427813 0.3306044 0.73100001
-0.11214626 0.33105668 0.73200005
-0.11015821 0.33196121 0.73400003
-0.10786375 0.33196121 0.73400003
-0.10571311 0.33241346 0.73500001
-0.10369693 0.333318 0.73700005
-0.10139309 0.333318 0.73700005
-0.099223703 0.33377028 0.73800004
-0.097179383 0.33467478 0.74000001
-0.094866164 0.33467478 0.74000001
-0.092678018 0.33512706 0.74100006
-0.090605572 0.33603159 0.74300003
-0.088520616 0.33693612 0.74500006
-0.086191773 0.33693612 0.74500006
-0.084088057 0.33784065 0.74700004
-0.081862397 0.3382929 0.74800003
-0.079524174 0.3382929 0.74800003
-0.077392332 0.33919743 0.75000006
-0.075147919 0.33964968 0.75100005
-0.072800316 0.33964968 0.75100005
-0.070640333 0.34055421 0.75300002
-0.068377167 0.34100646 0.75400001
-0.066282868 0.34236327 0.75700003
-0.063916512 0.34236327 0.75700003
-0.06163146 0.34281552 0.75800002
-0.059340164 0.3432678 0.75900006
-0.056967549 0.3432678 0.75900006
-0.054738801 0.34417233 0.76100004
-0.052428737 0.34462458 0.76200002
-0.050046753 0.34462458 0.76200002
-0.047727317 0.34507683 0.76300001
-0.045461059 0.34598136 0.76500005
-0.043125991 0.34643364 0.76600003
-0.040731497 0.34643364 0.76600003
-0.038387056 0.34688589 0.76700002
-0.036036357 0.34733814 0.76800001
-0.033635613 0.34733814 0.76800001
-0.031316213 0.3482427 0.77000004
-0.028984306 0.3491472 0.77200001
-0.026571058 0.3491472 0.77200001
-0.024157809 0.3491472 0.77200001
-0.021772729 0.34959948 0.77300006
-0.019356357 0.34959948 0.77300006
-0.016939983 0.34959948 0.77300006
-0.014542398 0.35005173 0.77400005
-0.012122897 0.35005173 0.77400005
-0.0097033987 0.35005173 0.77400005
-0.0072933091 0.35050401 0.77500004
-0.0048706839 0.35050401 0.77500004
-0.0024448996 0.35005173 0.77400005
-2.5400021e-05 0.35005173 0.77400005
0.0023971926 0.35050401 0.77500004
0.0048198178 0.35050401 0.77500004
0.0072424435 0.35050401 0.77500004
0.0096775405 0.35095626 0.77600002
0.012118888 0.35140851 0.77700001
0.014547765 0.35140851 0.77700001
0.017020343 0.35231307 0.77900004
0.01945547 0.35231307 0.77900004
0.021890601 0.35231307 0.77900004
0.024356956 0.35276532 0.78000003
0.026829565 0.35321757 0.78100002
0.029270947 0.35321757 0.78100002
0.031752933 0.35366985 0.78200006
0.03424117 0.3541221 0.78300005
0.036829375 0.35547888 0.78600001
0.039286382 0.35547888 0.78600001
0.041796505 0.35593116 0.78700006
0.044369113 0.35683569 0.78900003
0.046835501 0.35683569 0.78900003
0.049426861 0.35774019 0.79100001
0.051965117 0.35819247 0.79200006
0.054440882 0.35819247 0.79200006
0.05706038 0.359097 0.79400003
0.059767369 0.36045378 0.79700005
0.062336881 0.36090606 0.79800004
0.064831406 0.36090606 0.79800004
0.067410298 0.36135831 0.79900002
0.07008294 0.36226285 0.80100006
0.072586834 0.36226285 0.80100006
0.075184479 0.36271513 0.80200005
0.077788383 0.36316738 0.80300003
0.080298536 0.36316738 0.80300003
0.082911804 0.36361963 0.80400002
0.085637592 0.36452416 0.80600005
0.088157117 0.36452416 0.80600005
0.09090165 0.36542869 0.80800003
0.093658693 0.36633322 0.81000006
0.09642823 0.36723775 0.81200004
0.098966517 0.36723775 0.81200004
0.10162982 0.36769 0.81300002
0.10455562 0.36904681 0.81600004
0.10710641 0.36904681 0.81600004
0.11006035 0.37040359 0.81900007
0.11317056 0.37221262 0.82300001
0.11602451 0.37311718 0.82500005
0.11860343 0.37311718 0.82500005
0.12162302 0.37447396 0.82800007
0.12481137 0.37628299 0.83200002
0.12741219 0.37628299 0.83200002
0.13048178 0.3776398 0.83500004
0.13341074 0.3785443 0.83700001
0.13602717 0.3785443 0.83700001
0.13897491 0.37944886 0.83900005
0.14159758 0.37944886 0.83900005
0.14473598 0.38080564 0.84200007
0.14736804 0.38080564 0.84200007
0.15017825 0.38125792 0.84300005
0.15335725 0.38261467 0.84600002
0.15600182 0.38261467 0.84600002
0.15883394 0.38306695 0.84700006
0.16205357 0.38442373 0.85000002
0.16471064 0.38442373 0.85000002
0.16756462 0.38487598 0.85100001
0.17022482 0.38487598 0.85100001
0.17329133 0.38578054 0.85300004
0.17595778 0.38578054 0.85300004
0.17862423 0.38578054 0.85300004
0.18150321 0.38623279 0.85400003
0.18417278 0.38623279 0.85400003
0.18684237 0.38623279 0.85400003
0.18995577 0.38713732 0.85600007
0.1926316 0.38713732 0.85600007
0.19530743 0.38713732 0.85600007
0.19821455 0.3875896 0.85700005
0.20089349 0.3875896 0.85700005
0.20357245 0.3875896 0.85700005
0.2069734 0.38894635 0.86000001
0.20966174 0.38894635 0.86000001
0.21235007 0.38894635 0.86000001
0.2150384 0.38894635 0.86000001
0.21848625 0.39030316 0.86300004
0.22118396 0.39030316 0.86300004
0.22414108 0.39075541 0.86400002
0.22736703 0.39165998 0.86600006
0.23007414 0.39165998 0.86600006
0.23305002 0.39211223 0.86700004
0.23576023 0.39211223 0.86700004
0.23902054 0.39301673 0.86900002
0.24173701 0.39301673 0.86900002
0.24473478 0.39346901 0.87000006
0.24802323 0.39437354 0.87200004
0.25074908 0.39437354 0.87200004
0.25376558 0.39482579 0.87300003
0.25708219 0.39573035 0.87500006
0.25981739 0.39573035 0.87500006
0.2628527 0.3961826 0.87600005
0.26619741 0.3970871 0.87800002
0.26894203 0.3970871 0.87800002
0.27168661 0.3970871 0.87800002
0.2747438 0.39753938 0.87900007
0.27812287 0.39844391 0.88100004
0.28087687 0.39844391 0.88100004
0.28395277 0.39889616 0.88200003
0.28670987 0.39889616 0.88200003
0.28946698 0.39889616 0.88200003
0.29222408 0.39889616 0.88200003
0.29565009 0.39980069 0.88400006
0.29841346 0.39980069 0.88400006
0.30117682 0.39980069 0.88400006
0.30394018 0.39980069 0.88400006
0.30670354 0.39980069 0.88400006
0.30946687 0.39980069 0.88400006
0.31223023 0.39980069 0.88400006
0.31534991 0.40025297 0.88500005
0.31775695 0.39980069 0.88400006
0.32052028 0.39980069 0.88400006
0.32328364 0.39980069 0.88400006
0.326047 0.39980069 0.88400006
0.32881039 0.39980069 0.88400006
0.33157372 0.39980069 0.88400006
0.33433709 0.39980069 0.88400006
0.33710045 0.39980069 0.88400006
0.33986381 0.39980069 0.88400006
0.34262714 0.39980069 0.88400006
0.3453905 0.39980069 0.88400006
0.34815386 0.39980069 0.88400006
0.35091722 0.39980069 0.88400006
0.35368058 0.39980069 0.88400006
0.35644391 0.39980069 0.88400006
0.36042631 0.40115747 0.88700002
0.36319906 0.40115747 0.88700002
0.36597177 0.40115747 0.88700002
0.36874452 0.40115747 0.88700002
0.37151724 0.40115747 0.88700002
0.37428996 0.40115747 0.88700002
0.37748784 0.40160975 0.88800007
0.38026369 0.40160975 0.88800007
0.38303953 0.40160975 0.88800007
0.39059463 0.40658465 0.89900005
0.39515528 0.40839371 0.90300006
0.39797807 0.40839371 0.90300006
0.40124467 0.40884596 0.90400004
0.40541148 0.41020277 0.90700006
0.40824673 0.41020277 0.90700006
0.41198844 0.41110727 0.90900004
0.41574267 0.4120118 0.91100007
0.41859043 0.4120118 0.91100007
0.42190078 0.41246408 0.91200006
0.42475167 0.41246408 0.91200006
0.42854026 0.41336858 0.91400003
0.43139741 0.41336858 0.91400003
0.43425456 0.41336858 0.91400003
0.43711168 0.41336858 0.91400003
0.43900609 0.41246408 0.91200006
0.44185698 0.41246408 0.91200006
0.44470787 0.41246408 0.91200006
0.44755873 0.41246408 0.91200006
0.45040962 0.41246408 0.91200006
0.45326051 0.41246408 0.91200006
0.45561129 0.4120118 0.91100007
0.45745254 0.41110727 0.90900004
0.46029404 0.41110727 0.90900004
0.46313554 0.41110727 0.90900004
0.46597704 0.41110727 0.90900004
0.46985006 0.4120118 0.91100007
0.47425443 0.41336858 0.91400003
0.47711158 0.41336858 0.91400003
0.4799687 0.41336858 0.91400003
0.48388237 0.41427311 0.91600007
0.48674574 0.41427311 0.91600007
0.49014363 0.41472539 0.91700006
0.4940854 0.41562989 0.91900003
0.49695817 0.41562989 0.91900003
0.50091875 0.41653445 0.92100006
0.50434476 0.4169867 0.92200005
0.50722688 0.4169867 0.92200005
0.51010901 0.4169867 0.92200005
0.51410395 0.4178912 0.92400002
0.51811135 0.41879576 0.92600006
0.52100605 0.41879576 0.92600006
0.52276915 0.4178912 0.92400002
0.52565753 0.4178912 0.92400002
0.52740192 0.4169867 0.92200005
0.52855861 0.41562989 0.91900003
0.53143138 0.41562989 0.91900003
0.53314137 0.41472539 0.91700006
0.53542334 0.41427311 0.91600007
0.53828675 0.41427311 0.91600007
0.53996855 0.41336858 0.91400003
0.5416379 0.41246408 0.91200006
0.54389173 0.4120118 0.91100007
0.54673952 0.4120118 0.91100007
0.54838067 0.41110727 0.90900004
0.55000937 0.41020277 0.90700006
0.55284464 0.41020277 0.90700006
0.55567992 0.41020277 0.90700006
0.55851513 0.41020277 0.90700006
0.56135041 0.41020277 0.90700006
0.56418562 0.41020277 0.90700006
0.56827122 0.41110727 0.90900004
0.57236928 0.4120118 0.91100007
0.57521713 0.4120118 0.91100007
0.57806486 0.4120118 0.91100007
0.5828256 0.41336858 0.91400003
0.58696431 0.41427311 0.91600007
0.58982772 0.41427311 0.91600007
0.59463221 0.41562989 0.91900003
0.59945548 0.4169867 0.92200005
0.6023376 0.4169867 0.92200005
0.60653257 0.4178912 0.92400002
0.60942096 0.4178912 0.92400002
0.6123094 0.4178912 0.92400002
0.61519778 0.4178912 0.92400002
0.61808616 0.4178912 0.92400002
0.62097454 0.4178912 0.92400002
0.62386292 0.4178912 0.92400002
0.6267513 0.4178912 0.92400002
0.62963974 0.4178912 0.92400002
0.63115901 0.4169867 0.92200005
0.63335347 0.41653445 0.92100006
0.6362325 0.41653445 0.92100006
0.63772362 0.41562989 0.91900003
0.6392023 0.41472539 0.91700006
0.64206886 0.41472539 0.91700006
0.64493537 0.41472539 0.91700006
0.64780188 0.41472539 0.91700006
0.65066838 0.41472539 0.91700006
0.65353489 0.41472539 0.91700006
0.6564014 0.41472539 0.91700006
0.6607058 0.41562989 0.91900003
0.66357857 0.41562989 0.91900003
0.66645133 0.41562989 0.91900003
0.6693241 0.41562989 0.91900003
0.67219687 0.41562989 0.91900003
0.67506963 0.41562989 0.91900003
0.67794234 0.41562989 0.91900003
0.68229681 0.41653445 0.92100006
0.68517584 0.41653445 0.92100006
0.68880188 0.4169867 0.92200005
0.69318444 0.4178912 0.92400002
0.69607282 0.4178912 0.92400002
0.6989612 0.4178912 0.92400002
0.70184958 0.4178912 0.92400002
0.70473796 0.4178912 0.92400002
0.70915806 0.41879576 0.92600006
0.71205276 0.41879576 0.92600006
0.7149474 0.41879576 0.92600006
0.71784204 0.41879576 0.92600006
0.72073668 0.41879576 0.92600006
0.72363132 0.41879576 0.92600006
0.72652596 0.41879576 0.92600006
0.72784519 0.4178912 0.92400002
0.73073357 0.4178912 0.92400002
0.73203403 0.4169867 0.92200005
0.73411912 0.41653445 0.92100006
0.73699814 0.41653445 0.92100006
0.73987716 0.41653445 0.92100006
0.74114317 0.41562989 0.91900003
0.74401593 0.41562989 0.91900003
0.7468887 0.41562989 0.91900003
0.75628823 0.41924801 0.92700005
0.75918603 0.41924801 0.92700005
0.76208377 0.41924801 0.92700005
0.76498157 0.41924801 0.92700005
0.76787931 0.41924801 0.92700005
0.77077711 0.41924801 0.92700005
0.77367485 0.41924801 0.92700005
0.77824807 0.42015252 0.92900002
0.78115213 0.42015252 0.92900002
0.78405619 0.42015252 0.92900002
0.78865445 0.42105708 0.93100005
0.7924149 0.42150933 0.93200004
0.79532832 0.42150933 0.93200004
0.79995465 0.42241386 0.93400002
0.80287433 0.42241386 0.93400002
0.8075195 0.42331839 0.93600005
0.81044537 0.42331839 0.93600005
0.81424028 0.42377064 0.93700004
0.81891352 0.4246752 0.93900007
0.82184881 0.4246752 0.93900007
0.8247841 0.4246752 0.93900007
0.82948232 0.4255797 0.94100004
0.83242387 0.4255797 0.94100004
0.83536541 0.4255797 0.94100004
0.84008867 0.4264842 0.94300002
0.84303647 0.4264842 0.94300002
0.84598422 0.4264842 0.94300002
0.8498323 0.42693651 0.94400007
0.8527832 0.42693651 0.94400007
0.85573411 0.42693651 0.94400007
0.85868508 0.42693651 0.94400007
0.86163598 0.42693651 0.94400007
0.86458695 0.42693651 0.94400007
0.86753786 0.42693651 0.94400007
0.87233299 0.42784101 0.94600004
0.87529016 0.42784101 0.94600004
0.87824732 0.42784101 0.94600004
0.88120449 0.42784101 0.94600004
0.88229239 0.42693651 0.94400007
0.8852433 0.42693651 0.94400007
0.89007598 0.42784101 0.94600004
0.89303315 0.42784101 0.94600004
0.89599031 0.42784101 0.94600004
0.90084803 0.42874554 0.94800007
0.9038114 0.42874554 0.94800007
0.90677482 0.42874554 0.94800007
0.90781891 0.42784101 0.94600004
0.91077608 0.42784101 0.94600004
0.91373324 0.42784101 0.94600004
0.91475242 0.42693651 0.94400007
0.91770333 0.42693651 0.94400007
0.92065424 0.42693651 0.94400007
0.9236052 0.42693651 0.94400007
0.92655611 0.42693651 0.94400007
0.92852235 0.4264842 0.94300002
0.93147016 0.4264842 0.94300002
0.93243617 0.4255797 0.94100004
0.93537766 0.4255797 0.94100004
0.93831921 0.4255797 0.94100004
0.94326127 0.4264842 0.94300002
-0.75550902 0.3460958 0.76000005
-0.75412422 0.34655118 0.76100004
-0.75174534 0.34655118 0.76100004
-0.74936652 0.34655118 0.76100004
-0.74698764 0.34655118 0.76100004
-0.74460876 0.34655118 0.76100004
-0.74222994 0.34655118 0.76100004
-0.74082327 0.34700656 0.76200002
-0.73844129 0.34700656 0.76200002
-0.73895717 0.34837273 0.76500005
-0.73752862 0.34882811 0.76600003
-0.73513412 0.34882811 0.76600003
-0.73273963 0.34882811 0.76600003
-0.73129857 0.34928352 0.76700002
-0.72890097 0.34928352 0.76700002
-0.72650331 0.34928352 0.76700002
-0.72410572 0.34928352 0.76700002
-0.72170812 0.34928352 0.76700002
-0.71743488 0.34837273 0.76500005
-0.71504349 0.34837273 0.76500005
-0.71265215 0.34837273 0.76500005
-0.70747542 0.34700656 0.76200002
-0.70509344 0.34700656 0.76200002
-0.70271146 0.34700656 0.76200002
-0.70032948 0.34700656 0.76200002
-0.6979475 0.34700656 0.76200002
-0.69556546 0.34700656 0.76200002
-0.69409317 0.34746194 0.76300001
-0.69170809 0.34746194 0.76300001
-0.68932295 0.34746194 0.76300001
-0.68693787 0.34746194 0.76300001
-0.68455267 0.34746194 0.76300001
-0.68395573 0.34837273 0.76500005
-0.68156433 0.34837273 0.76500005
-0.6800608 0.34882811 0.76600003
-0.67766631 0.34882811 0.76600003
-0.67703491 0.3497389 0.76800001
-0.67463416 0.3497389 0.76800001
-0.6722334 0.3497389 0.76800001
-0.66896051 0.34928352 0.76700002
-0.66656291 0.34928352 0.76700002
-0.66329938 0.34882811 0.76600003
-0.66090488 0.34882811 0.76600003
-0.65937006 0.34928352 0.76700002
-0.65697241 0.34928352 0.76700002
-0.65457481 0.34928352 0.76700002
-0.65132689 0.34882811 0.76600003
-0.6489324 0.34882811 0.76600003
-0.64653796 0.34882811 0.76600003
-0.64330256 0.34837273 0.76500005
-0.64091116 0.34837273 0.76500005
-0.63851982 0.34837273 0.76500005
-0.63612843 0.34837273 0.76500005
-0.63456547 0.34882811 0.76600003
-0.63217098 0.34882811 0.76600003
-0.63717592 0.35292661 0.77500004
-0.63557231 0.35338202 0.77600002
-0.63396245 0.3538374 0.77700001
-0.63153362 0.3538374 0.77700001
-0.62910473 0.3538374 0.77700001
-0.62828892 0.35474819 0.77900004
-0.62585384 0.35474819 0.77900004
-0.62421894 0.35520357 0.78000003
-0.62257785 0.35565895 0.78100002
-0.6201365 0.35565895 0.78100002
-0.61769509 0.35565895 0.78100002
-0.61525375 0.35565895 0.78100002
-0.61281234 0.35565895 0.78100002
-0.61037093 0.35565895 0.78100002
-0.60792959 0.35565895 0.78100002
-0.60626352 0.35611436 0.78200006
-0.60381901 0.35611436 0.78200006
-0.60214353 0.35656974 0.78300005
