# .PCD v0.7 - Point Cloud Data file format
VERSION 0.7
FIELDS x y z
SIZE 4 4 4
TYPE F F F
COUNT 1 1 1
WIDTH 1363
HEIGHT 1
VIEWPOINT 0 0 0 1 0 0 0
POINTS 1363
DATA ascii
-0.5711382 -0.00072658993 0.72500002
-0.57122588 -0.00072959653 0.72800004
-0.57051319 -0.00073160086 0.73000002
-0.56823123 -0.00073160086 0.73000002
-0.56827509 -0.00073460746 0.73300004
-0.56752807 -0.00073661184 0.73500001
-0.56523049 -0.00073661184 0.73500001
-0.56446469 -0.00073861628 0.73700005
-0.56292361 -0.00073961844 0.73800004
-0.56061667 -0.00073961844 0.73800004
-0.56057924 -0.00074262504 0.74100006
-0.55901629 -0.0007436272 0.74200004
-0.55744708 -0.00074462942 0.74300003
-0.55512446 -0.00074462942 0.74300003
-0.55280185 -0.00074462942 0.74300003
-0.55196106 -0.0007466338 0.74500006
-0.54963225 -0.0007466338 0.74500006
-0.54803801 -0.00074763602 0.74600005
-0.54643756 -0.00074863818 0.74700004
-0.54410243 -0.00074863818 0.74700004
-0.54249257 -0.00074964034 0.74800003
-0.5401544 -0.00074964034 0.74800003
-0.53853512 -0.00075064256 0.74900001
-0.53619379 -0.00075064256 0.74900001
-0.53385246 -0.00075064256 0.74900001
-0.53222078 -0.00075164478 0.75000006
-0.52987629 -0.00075164478 0.75000006
-0.64615899 0.0013804539 0.65000004
-0.64412713 0.0013804539 0.65000004
-0.6430831 0.0013825777 0.65100002
-0.6420328 0.0013847015 0.65200001
-0.63999468 0.0013847015 0.65200001
-0.6399135 0.0013889491 0.65400004
-0.63981974 0.0013931965 0.65600002
-0.64068574 0.0013995679 0.65900004
-0.63862574 0.0013995679 0.65900004
-0.63849759 0.0014038155 0.66100001
-0.63739419 0.0014059393 0.66200006
-0.63532478 0.0014059393 0.66200006
-0.63612509 0.0014123105 0.66500002
-0.63595331 0.0014165582 0.66700006
-0.63386828 0.0014165582 0.66700006
-0.6336776 0.0014208057 0.66900003
-0.63253039 0.0014229295 0.67000002
-0.63231796 0.001427177 0.67200005
-0.63021731 0.001427177 0.67200005
-0.62998605 0.0014314245 0.67400002
-0.6288107 0.0014335483 0.67500001
-0.62670064 0.0014335483 0.67500001
-0.62459064 0.0014335483 0.67500001
-0.62340283 0.0014356722 0.67600006
-0.62220871 0.0014377959 0.67700005
-0.62009245 0.0014377959 0.67700005
-0.61888897 0.0014399197 0.67800003
-0.61676961 0.0014399197 0.67800003
-0.61465019 0.0014399197 0.67800003
-0.6134342 0.0014420433 0.67900002
-0.61221194 0.0014441671 0.68000001
-0.61008626 0.0014441671 0.68000001
-0.60885471 0.001446291 0.68100005
-0.60761684 0.0014484148 0.68200004
-0.60637271 0.0014505385 0.68300003
-0.60423774 0.0014505385 0.68300003
-0.6038658 0.0014547862 0.68500006
-0.60172451 0.0014547862 0.68500006
-0.59958327 0.0014547862 0.68500006
-0.5991863 0.0014590336 0.68700004
-0.59790778 0.0014611573 0.68800002
-0.59575713 0.0014611573 0.68800002
-0.59533209 0.001465405 0.69000006
-0.59575415 0.0014717763 0.69300002
-0.59530097 0.0014760239 0.69500005
-0.59312844 0.0014760239 0.69500005
-0.59265649 0.0014802713 0.69700003
-0.59301919 0.0014866428 0.70000005
-0.59083104 0.0014866428 0.70000005
-0.59032464 0.0014908903 0.70200002
-0.58980584 0.0014951378 0.70400006
-0.58927447 0.0014993853 0.70600003
-0.58706754 0.0014993853 0.70600003
-0.5873459 0.0015057568 0.70900005
-0.58595479 0.0015078805 0.71000004
-0.58373535 0.0015078805 0.71000004
-0.58315396 0.0015121279 0.71200001
-0.58174425 0.0015142518 0.71300006
-0.57951546 0.0015142518 0.71300006
-0.57890594 0.0015184993 0.71500003
-0.5774774 0.0015206231 0.71600002
-0.576846 0.0015248707 0.71800005
-0.57460159 0.0015248707 0.71800005
-0.57395142 0.0015291182 0.72000003
-0.57249475 0.0015312419 0.72100002
-0.57024091 0.0015312419 0.72100002
-0.56956267 0.0015354896 0.72300005
-0.56965655 0.0015418609 0.72600001
-0.56973165 0.0015482322 0.72900003
-0.56745285 0.0015482322 0.72900003
-0.56672454 0.0015524797 0.73100001
-0.56675589 0.0015588511 0.73400003
-0.56446147 0.0015588511 0.73400003
-0.56369883 0.0015630986 0.73600006
-0.56216085 0.0015652224 0.73700005
-0.55985701 0.0015652224 0.73700005
-0.55982268 0.0015715937 0.74000001
-0.55826288 0.0015737176 0.74100006
-0.55669677 0.0015758413 0.74200004
-0.55437732 0.0015758413 0.74200004
-0.55280185 0.001577965 0.74300003
-0.55196106 0.0015822126 0.74500006
-0.54963225 0.0015822126 0.74500006
-0.54803801 0.0015843364 0.74600005
-0.54643756 0.0015864602 0.74700004
-0.54410243 0.0015864602 0.74700004
-0.54176736 0.0015864602 0.74700004
-0.5401544 0.0015885839 0.74800003
-0.53853512 0.0015907077 0.74900001
-0.53619379 0.0015907077 0.74900001
-0.53385246 0.0015907077 0.74900001
-0.53222078 0.0015928316 0.75000006
-0.52987629 0.0015928316 0.75000006
-0.64615899 0.0034123333 0.65000004
-0.64412713 0.0034123333 0.65000004
-0.6430831 0.0034175829 0.65100002
-0.6420328 0.0034228328 0.65200001
-0.63999468 0.0034228328 0.65200001
-0.64089191 0.0034385819 0.65500003
-0.63981974 0.0034438318 0.65600002
-0.64068574 0.0034595812 0.65900004
-0.63862574 0.0034595812 0.65900004
-0.63849759 0.0034700804 0.66100001
-0.63739419 0.0034753303 0.66200006
-0.63532478 0.0034753303 0.66200006
-0.63612509 0.0034910794 0.66500002
-0.63595331 0.0035015792 0.66700006
-0.63386828 0.0035015792 0.66700006
-0.6336776 0.0035120784 0.66900003
-0.63253039 0.0035173281 0.67000002
-0.63231796 0.0035278278 0.67200005
-0.63021731 0.0035278278 0.67200005
-0.62905133 0.0035330774 0.67300004
-0.62787914 0.0035383271 0.67400002
-0.62577224 0.0035383271 0.67400002
-0.62459064 0.0035435769 0.67500001
-0.62340283 0.0035488268 0.67600006
-0.62128967 0.0035488268 0.67600006
-0.61917651 0.0035488268 0.67600006
-0.61797619 0.0035540764 0.67700005
-0.61676961 0.0035593261 0.67800003
-0.61465019 0.0035593261 0.67800003
-0.6134342 0.0035645759 0.67900002
-0.61131167 0.0035645759 0.67900002
-0.60918909 0.0035645759 0.67900002
-0.60796064 0.0035698256 0.68000001
-0.60761684 0.0035803253 0.68200004
-0.60637271 0.0035855749 0.68300003
-0.60423774 0.0035855749 0.68300003
-0.60298419 0.0035908245 0.68400002
-0.60172451 0.0035960744 0.68500006
-0.59958327 0.0035960744 0.68500006
-0.59831411 0.0036013243 0.68600005
-0.59703875 0.0036065739 0.68700004
-0.59489119 0.0036065739 0.68700004
-0.59446925 0.0036170732 0.68900001
-0.59489453 0.0036328225 0.69200003
-0.59444439 0.0036433218 0.69400001
-0.59227496 0.0036433218 0.69400001
-0.59265649 0.0036590712 0.69700003
-0.59217203 0.0036695709 0.69900006
-0.58998698 0.0036695709 0.69900006
-0.59032464 0.00368532 0.70200002
-0.58896804 0.0036905697 0.70300001
-0.58927447 0.003706319 0.70600003
-0.58706754 0.003706319 0.70600003
-0.58651745 0.0037168183 0.708
-0.58595479 0.003727318 0.71000004
-0.58373535 0.003727318 0.71000004
-0.58233494 0.0037325677 0.71100003
-0.58174425 0.0037430674 0.71300006
-0.57951546 0.0037430674 0.71300006
-0.57809627 0.003748317 0.71400005
-0.57667083 0.0037535666 0.71500003
-0.57604259 0.0037640659 0.71700001
-0.57380128 0.0037640659 0.71700001
-0.57235712 0.003769316 0.71800005
-0.57170075 0.0037798153 0.72000003
-0.56945002 0.0037798153 0.72000003
-0.56877494 0.003790315 0.72200006
-0.56808728 0.0038008143 0.72400004
-0.56895018 0.0038218135 0.72800004
-0.56667447 0.0038218135 0.72800004
-0.56594926 0.0038323128 0.73000002
-0.56521165 0.0038428125 0.73200005
-0.56292343 0.0038428125 0.73200005
-0.56216699 0.0038533118 0.73400003
-0.56216085 0.0038690611 0.73700005
-0.55985701 0.0038690611 0.73700005
-0.55906618 0.0038795604 0.73900002
-0.55750948 0.00388481 0.74000001
-0.55594653 0.0038900601 0.74100006
-0.55363017 0.0038900601 0.74100006
-0.55205786 0.0038953098 0.74200004
-0.55047929 0.0039005594 0.74300003
-0.54815668 0.0039005594 0.74300003
-0.54730338 0.0039110593 0.74500006
-0.54570603 0.0039163087 0.74600005
-0.54337406 0.0039163087 0.74600005
-0.54176736 0.0039215586 0.74700004
-0.53943223 0.0039215586 0.74700004
-0.53781617 0.003926808 0.74800003
-0.53547794 0.003926808 0.74800003
-0.53313971 0.003926808 0.74800003
-0.53151113 0.0039320579 0.74900001
-0.52916974 0.0039320579 0.74900001
-0.64615899 0.0054442128 0.65000004
-0.64412713 0.0054442128 0.65000004
-0.6430831 0.0054525887 0.65100002
-0.6420328 0.0054609641 0.65200001
-0.63999468 0.0054609641 0.65200001
-0.64089191 0.0054860916 0.65500003
-0.63981974 0.005494467 0.65600002
-0.64068574 0.0055195945 0.65900004
-0.63862574 0.0055195945 0.65900004
-0.63849759 0.0055363458 0.66100001
-0.63835698 0.0055530975 0.66300005
-0.63628447 0.0055530975 0.66300005
-0.63612509 0.0055698487 0.66500002
-0.63595331 0.0055866004 0.66700006
-0.63481855 0.0055949758 0.66800004
-0.63273042 0.0055949758 0.66800004
-0.63253039 0.005611727 0.67000002
-0.63231796 0.0056284787 0.67200005
-0.63021731 0.0056284787 0.67200005
-0.62905133 0.0056368541 0.67300004
-0.62787914 0.0056452299 0.67400002
-0.62577224 0.0056452299 0.67400002
-0.62459064 0.0056536053 0.67500001
-0.62248063 0.0056536053 0.67500001
-0.62128967 0.0056619816 0.67600006
-0.61917651 0.0056619816 0.67600006
-0.61797619 0.005670357 0.67700005
-0.61676961 0.0056787329 0.67800003
-0.61465019 0.0056787329 0.67800003
-0.61253077 0.0056787329 0.67800003
-0.61131167 0.0056871083 0.67900002
-0.60918909 0.0056871083 0.67900002
-0.60796064 0.0056954841 0.68000001
-0.60672593 0.00570386 0.68100005
-0.60548496 0.0057122358 0.68200004
-0.60335302 0.0057122358 0.68200004
-0.60298419 0.005728987 0.68400002
-0.60172451 0.0057373629 0.68500006
-0.59958327 0.0057373629 0.68500006
-0.59744197 0.0057373629 0.68500006
-0.59616971 0.0057457387 0.68600005
-0.59402531 0.0057457387 0.68600005
-0.59446925 0.0057708654 0.68900001
-0.59403485 0.0057876171 0.69100004
-0.59444439 0.0058127441 0.69400001
-0.59227496 0.0058127441 0.69400001
-0.59265649 0.0058378712 0.69700003
-0.59217203 0.0058546229 0.69900006
-0.58998698 0.0058546229 0.69900006
-0.59032464 0.00587975 0.70200002
-0.58896804 0.0058881254 0.70300001
-0.58927447 0.0059132529 0.70600003
-0.58706754 0.0059132529 0.70600003
-0.58651745 0.0059300042 0.708
-0.58595479 0.0059467559 0.71000004
-0.58373535 0.0059467559 0.71000004
-0.58233494 0.0059551313 0.71100003
-0.58092833 0.0059635066 0.71200001
-0.57870263 0.0059635066 0.71200001
-0.5772866 0.005971883 0.71300006
-0.57667083 0.0059886342 0.71500003
-0.57604259 0.0060053854 0.71700001
-0.57380128 0.0060053854 0.71700001
-0.57235712 0.0060137613 0.71800005
-0.57170075 0.0060305125 0.72000003
-0.56945002 0.0060305125 0.72000003
-0.56877494 0.0060472642 0.72200006
-0.56808728 0.0060640154 0.72400004
-0.56895018 0.0060975184 0.72800004
-0.56667447 0.0060975184 0.72800004
-0.56594926 0.0061142696 0.73000002
-0.56521165 0.0061310213 0.73200005
-0.56292343 0.0061310213 0.73200005
-0.56216699 0.0061477725 0.73400003
-0.56216085 0.0061729001 0.73700005
-0.55985701 0.0061729001 0.73700005
-0.55906618 0.0061896513 0.73900002
-0.55750948 0.0061980267 0.74000001
-0.55594653 0.006206403 0.74100006
-0.55363017 0.006206403 0.74100006
-0.55205786 0.0062147784 0.74200004
-0.55047929 0.0062231543 0.74300003
-0.54815668 0.0062231543 0.74300003
-0.54730338 0.006239906 0.74500006
-0.54570603 0.0062482813 0.74600005
-0.54337406 0.0062482813 0.74600005
-0.54176736 0.0062566572 0.74700004
-0.53943223 0.0062566572 0.74700004
-0.53781617 0.0062650326 0.74800003
-0.53547794 0.0062650326 0.74800003
-0.53313971 0.0062650326 0.74800003
-0.53151113 0.0062734084 0.74900001
-0.52916974 0.0062734084 0.74900001
-0.64615899 0.0074760923 0.65000004
-0.64412713 0.0074760923 0.65000004
-0.6430831 0.0074875942 0.65100002
-0.64301753 0.0075105978 0.65300006
-0.64097631 0.0075105978 0.65300006
-0.64089191 0.007533601 0.65500003
-0.63981974 0.0075451024 0.65600002
-0.64068574 0.0075796074 0.65900004
-0.63862574 0.0075796074 0.65900004
-0.63849759 0.0076026106 0.66100001
-0.63739419 0.0076141129 0.66200006
-0.63532478 0.0076141129 0.66200006
-0.63612509 0.0076486175 0.66500002
-0.63595331 0.0076716212 0.66700006
-0.63481855 0.007683123 0.66800004
-0.63273042 0.007683123 0.66800004
-0.63253039 0.0077061257 0.67000002
-0.63137698 0.0077176276 0.671
-0.62927943 0.0077176276 0.671
-0.62905133 0.0077406312 0.67300004
-0.62787914 0.0077521326 0.67400002
-0.62577224 0.0077521326 0.67400002
-0.62459064 0.0077636344 0.67500001
-0.62248063 0.0077636344 0.67500001
-0.62128967 0.0077751363 0.67600006
-0.61917651 0.0077751363 0.67600006
-0.61797619 0.0077866381 0.67700005
-0.61676961 0.0077981395 0.67800003
-0.61465019 0.0077981395 0.67800003
-0.61253077 0.0077981395 0.67800003
-0.61131167 0.0078096408 0.67900002
-0.60918909 0.0078096408 0.67900002
-0.60796064 0.0078211427 0.68000001
-0.60672593 0.0078326445 0.68100005
-0.60548496 0.0078441463 0.68200004
-0.60335302 0.0078441463 0.68200004
-0.60298419 0.0078671491 0.68400002
-0.60172451 0.0078786518 0.68500006
-0.59958327 0.0078786518 0.68500006
-0.59744197 0.0078786518 0.68500006
-0.59616971 0.0078901527 0.68600005
-0.59402531 0.0078901527 0.68600005
-0.59446925 0.0079246573 0.68900001
-0.59403485 0.0079476619 0.69100004
-0.59444439 0.0079821665 0.69400001
-0.59227496 0.0079821665 0.69400001
-0.59265649 0.0080166711 0.69700003
-0.59217203 0.0080396747 0.69900006
-0.58998698 0.0080396747 0.69900006
-0.59032464 0.0080741793 0.70200002
-0.58980584 0.0080971839 0.70400006
-0.58927447 0.0081201866 0.70600003
-0.58706754 0.0081201866 0.70600003
-0.58651745 0.0081431894 0.708
-0.58595479 0.008166193 0.71000004
-0.58373535 0.008166193 0.71000004
-0.58233494 0.0081776949 0.71100003
-0.58092833 0.0081891967 0.71200001
-0.57870263 0.0081891967 0.71200001
-0.5772866 0.0082006985 0.71300006
-0.57667083 0.0082237013 0.71500003
-0.57523918 0.0082352031 0.71600002
-0.57300097 0.0082352031 0.71600002
-0.57155997 0.0082467049 0.71700001
-0.5709067 0.0082697086 0.71900004
-0.56865913 0.0082697086 0.71900004
-0.56798708 0.0082927113 0.72100002
-0.56730258 0.008315715 0.72300005
-0.56660557 0.0083387187 0.72500002
-0.56433922 0.0083387187 0.72500002
-0.56517404 0.0083847251 0.72900003
-0.56443948 0.0084077278 0.73100001
-0.56215435 0.0084077278 0.73100001
-0.56140113 0.0084307324 0.73300004
-0.56063533 0.0084537352 0.73500001
-0.55833769 0.0084537352 0.73500001
-0.55755317 0.0084767388 0.73700005
-0.55675608 0.0084997416 0.73900002
-0.55519623 0.0085112434 0.74000001
-0.55288303 0.0085112434 0.74000001
-0.55131388 0.0085227452 0.74100006
-0.54973841 0.0085342471 0.74200004
-0.54741895 0.0085342471 0.74200004
-0.54583406 0.0085457489 0.74300003
-0.54497457 0.0085687526 0.74500006
-0.54264569 0.0085687526 0.74500006
-0.54176736 0.0085917553 0.74700004
-0.53943223 0.0085917553 0.74700004
-0.53781617 0.0086032571 0.74800003
-0.53547794 0.0086032571 0.74800003
-0.53313971 0.0086032571 0.74800003
-0.53151113 0.008614759 0.74900001
-0.52916974 0.008614759 0.74900001
-0.64715308 0.0095225992 0.65100002
-0.64511812 0.0095225992 0.65100002
-0.6430831 0.0095225992 0.65100002
-0.64301753 0.0095518557 0.65300006
-0.64097631 0.0095518557 0.65300006
-0.64089191 0.0095811104 0.65500003
-0.63981974 0.0095957378 0.65600002
-0.64068574 0.0096396208 0.65900004
-0.63862574 0.0096396208 0.65900004
-0.63849759 0.0096688755 0.66100001
-0.63739419 0.0096835038 0.66200006
-0.63532478 0.0096835038 0.66200006
-0.63612509 0.0097273868 0.66500002
-0.63595331 0.0097566424 0.66700006
-0.63481855 0.0097712697 0.66800004
-0.63273042 0.0097712697 0.66800004
-0.63253039 0.0098005245 0.67000002
-0.63137698 0.0098151518 0.671
-0.62927943 0.0098151518 0.671
-0.62905133 0.0098444084 0.67300004
-0.62787914 0.0098590357 0.67400002
-0.62577224 0.0098590357 0.67400002
-0.62459064 0.0098736631 0.67500001
-0.62248063 0.0098736631 0.67500001
-0.62128967 0.0098882914 0.67600006
-0.61917651 0.0098882914 0.67600006
-0.61797619 0.0099029187 0.67700005
-0.61585993 0.0099029187 0.67700005
-0.6137436 0.0099029187 0.67700005
-0.61253077 0.0099175461 0.67800003
-0.61131167 0.0099321734 0.67900002
-0.60918909 0.0099321734 0.67900002
-0.60796064 0.0099468008 0.68000001
-0.60672593 0.0099614291 0.68100005
-0.60548496 0.0099760573 0.68200004
-0.60335302 0.0099760573 0.68200004
-0.6021027 0.0099906847 0.68300003
-0.60172451 0.01001994 0.68500006
-0.59958327 0.01001994 0.68500006
-0.59744197 0.01001994 0.68500006
-0.59616971 0.010034568 0.68600005
-0.59402531 0.010034568 0.68600005
-0.59360647 0.010063822 0.68800002
-0.59403485 0.010107705 0.69100004
-0.59444439 0.010151588 0.69400001
-0.59227496 0.010151588 0.69400001
-0.59180617 0.010180844 0.69600004
-0.59217203 0.010224727 0.69900006
-0.58998698 0.010224727 0.69900006
-0.59032464 0.01026861 0.70200002
-0.58896804 0.010283237 0.70300001
-0.58927447 0.01032712 0.70600003
-0.58706754 0.01032712 0.70600003
-0.58651745 0.010356375 0.708
-0.58595479 0.010385631 0.71000004
-0.58373535 0.010385631 0.71000004
-0.58233494 0.010400258 0.71100003
-0.58092833 0.010414886 0.71200001
-0.57870263 0.010414886 0.71200001
-0.5772866 0.010429515 0.71300006
-0.57667083 0.010458769 0.71500003
-0.57523918 0.010473397 0.71600002
-0.57300097 0.010473397 0.71600002
-0.57155997 0.010488024 0.71700001
-0.57011271 0.010502652 0.71800005
-0.56786823 0.010502652 0.71800005
-0.56719935 0.010531907 0.72000003
-0.56651795 0.010561164 0.72200006
-0.56582403 0.010590418 0.72400004
-0.56356084 0.010590418 0.72400004
-0.56439877 0.010648929 0.72800004
-0.5636673 0.010678183 0.73000002
-0.56138539 0.010678183 0.73000002
-0.56063521 0.01070744 0.73200005
-0.55987257 0.010736695 0.73400003
-0.55757809 0.010736695 0.73400003
-0.55679667 0.01076595 0.73600006
-0.55600268 0.010795205 0.73800004
-0.55444598 0.010809832 0.73900002
-0.55213588 0.010809832 0.73900002
-0.55056983 0.01082446 0.74000001
-0.54899752 0.010839089 0.74100006
-0.54668117 0.010839089 0.74100006
-0.54509944 0.010853716 0.74200004
-0.54351151 0.010868344 0.74300003
-0.5411889 0.010868344 0.74300003
-0.54104209 0.010912227 0.74600005
-0.53943223 0.010926854 0.74700004
-0.53709716 0.010926854 0.74700004
-0.53476208 0.010926854 0.74700004
-0.53313971 0.010941481 0.74800003
-0.53151113 0.010956109 0.74900001
-0.52916974 0.010956109 0.74900001
-0.64715308 0.011557604 0.65100002
-0.64511812 0.011557604 0.65100002
-0.6430831 0.011557604 0.65100002
-0.64301753 0.011593112 0.65300006
-0.64097631 0.011593112 0.65300006
-0.6399135 0.011610866 0.65400004
-0.63981974 0.011646372 0.65600002
-0.64068574 0.011699634 0.65900004
-0.63862574 0.011699634 0.65900004
-0.63849759 0.01173514 0.66100001
-0.63643134 0.01173514 0.66100001
-0.63436508 0.01173514 0.66100001
-0.63516855 0.011788402 0.66400003
-0.63499981 0.011823908 0.66600001
-0.63481855 0.011859416 0.66800004
-0.63273042 0.011859416 0.66800004
-0.63158637 0.01187717 0.66900003
-0.63137698 0.011912677 0.671
-0.62927943 0.011912677 0.671
-0.62811667 0.011930431 0.67200005
-0.62694758 0.011948184 0.67300004
-0.62484378 0.011948184 0.67300004
-0.62366533 0.011965938 0.67400002
-0.62248063 0.011983691 0.67500001
-0.62037057 0.011983691 0.67500001
-0.61826056 0.011983691 0.67500001
-0.6170634 0.012001446 0.67600006
-0.61585993 0.012019198 0.67700005
-0.6137436 0.012019198 0.67700005
-0.61253077 0.012036952 0.67800003
-0.61131167 0.012054706 0.67900002
-0.60918909 0.012054706 0.67900002
-0.60796064 0.012072459 0.68000001
-0.60672593 0.012090214 0.68100005
-0.60548496 0.012107966 0.68200004
-0.60335302 0.012107966 0.68200004
-0.6021027 0.01212572 0.68300003
-0.60172451 0.012161228 0.68500006
-0.59958327 0.012161228 0.68500006
-0.59744197 0.012161228 0.68500006
-0.59616971 0.012178982 0.68600005
-0.59402531 0.012178982 0.68600005
-0.59360647 0.012214488 0.68800002
-0.59403485 0.01226775 0.69100004
-0.59444439 0.012321009 0.69400001
-0.59227496 0.012321009 0.69400001
-0.59180617 0.012356518 0.69600004
-0.59217203 0.012409778 0.69900006
-0.58998698 0.012409778 0.69900006
-0.59032464 0.012463039 0.70200002
-0.58896804 0.012480793 0.70300001
-0.58927447 0.012534053 0.70600003
-0.58706754 0.012534053 0.70600003
-0.58651745 0.01256956 0.708
-0.5851295 0.012587314 0.70900005
-0.58291322 0.012587314 0.70900005
-0.58233494 0.012622821 0.71100003
-0.58092833 0.012640575 0.71200001
-0.57870263 0.012640575 0.71200001
-0.5772866 0.01265833 0.71300006
-0.57586432 0.012676083 0.71400005
-0.57443577 0.012693836 0.71500003
-0.57220072 0.012693836 0.71500003
-0.57155997 0.012729343 0.71700001
-0.56931865 0.012729343 0.71700001
-0.56707734 0.012729343 0.71700001
-0.56641155 0.012764851 0.71900004
-0.56651795 0.012818112 0.72200006
-0.56582403 0.012853619 0.72400004
-0.56356084 0.012853619 0.72400004
-0.56439877 0.012924633 0.72800004
-0.5636673 0.01296014 0.73000002
-0.56138539 0.01296014 0.73000002
-0.56063521 0.012995648 0.73200005
-0.55987257 0.013031155 0.73400003
-0.55757809 0.013031155 0.73400003
-0.55679667 0.013066662 0.73600006
-0.55600268 0.013102169 0.73800004
-0.55444598 0.013119923 0.73900002
-0.55213588 0.013119923 0.73900002
-0.55056983 0.013137676 0.74000001
-0.54899752 0.013155431 0.74100006
-0.54668117 0.013155431 0.74100006
-0.54509944 0.013173183 0.74200004
-0.54351151 0.013190937 0.74300003
-0.5411889 0.013190937 0.74300003
-0.54104209 0.013244199 0.74600005
-0.53943223 0.013261952 0.74700004
-0.53709716 0.013261952 0.74700004
-0.53476208 0.013261952 0.74700004
-0.53313971 0.013279705 0.74800003
-0.53151113 0.013297458 0.74900001
-0.52916974 0.013297458 0.74900001
-0.64715308 0.01359261 0.65100002
-0.64511812 0.01359261 0.65100002
-0.6430831 0.01359261 0.65100002
-0.64301753 0.013634371 0.65300006
-0.64097631 0.013634371 0.65300006
-0.6399135 0.01365525 0.65400004
-0.63981974 0.013697009 0.65600002
-0.64068574 0.013759647 0.65900004
-0.63862574 0.013759647 0.65900004
-0.63753164 0.013780527 0.66000003
-0.63643134 0.013801406 0.66100001
-0.63436508 0.013801406 0.66100001
-0.63516855 0.013864045 0.66400003
-0.63404638 0.013884924 0.66500002
-0.63481855 0.013947564 0.66800004
-0.63273042 0.013947564 0.66800004
-0.63158637 0.013968443 0.66900003
-0.630436 0.013989323 0.67000002
-0.62834162 0.013989323 0.67000002
-0.62718189 0.014010202 0.671
-0.62694758 0.014051962 0.67300004
-0.62484378 0.014051962 0.67300004
-0.62366533 0.014072841 0.67400002
-0.62248063 0.01409372 0.67500001
-0.62037057 0.01409372 0.67500001
-0.61826056 0.01409372 0.67500001
-0.6170634 0.014114601 0.67600006
-0.61585993 0.01413548 0.67700005
-0.6137436 0.01413548 0.67700005
-0.61253077 0.014156359 0.67800003
-0.61131167 0.014177239 0.67900002
-0.60918909 0.014177239 0.67900002
-0.60796064 0.014198118 0.68000001
-0.60672593 0.014218999 0.68100005
-0.60548496 0.014239878 0.68200004
-0.60335302 0.014239878 0.68200004
-0.6021027 0.014260758 0.68300003
-0.60172451 0.014302517 0.68500006
-0.59958327 0.014302517 0.68500006
-0.59744197 0.014302517 0.68500006
-0.59703875 0.014344276 0.68700004
-0.59489119 0.014344276 0.68700004
-0.59446925 0.014386035 0.68900001
-0.59489453 0.014448673 0.69200003
-0.59444439 0.014490432 0.69400001
-0.59227496 0.014490432 0.69400001
-0.59265649 0.014553072 0.69700003
-0.59217203 0.014594832 0.69900006
-0.58998698 0.014594832 0.69900006
-0.59032464 0.014657469 0.70200002
-0.58896804 0.014678349 0.70300001
-0.58927447 0.014740988 0.70600003
-0.58706754 0.014740988 0.70600003
-0.58651745 0.014782746 0.708
-0.5851295 0.014803627 0.70900005
-0.58291322 0.014803627 0.70900005
-0.58233494 0.014845385 0.71100003
-0.58092833 0.014866265 0.71200001
-0.57870263 0.014866265 0.71200001
-0.5772866 0.014887146 0.71300006
-0.57586432 0.014908025 0.71400005
-0.57443577 0.014928904 0.71500003
-0.57220072 0.014928904 0.71500003
-0.57155997 0.014970663 0.71700001
-0.56931865 0.014970663 0.71700001
-0.56707734 0.014970663 0.71700001
-0.56641155 0.015012423 0.71900004
-0.56651795 0.015075061 0.72200006
-0.56582403 0.01511682 0.72400004
-0.56356084 0.01511682 0.72400004
-0.56439877 0.015200339 0.72800004
-0.5636673 0.015242098 0.73000002
-0.56138539 0.015242098 0.73000002
-0.56063521 0.015283857 0.73200005
-0.55987257 0.015325616 0.73400003
-0.55757809 0.015325616 0.73400003
-0.55679667 0.015367376 0.73600006
-0.55524933 0.015388255 0.73700005
-0.55444598 0.015430014 0.73900002
-0.55213588 0.015430014 0.73900002
-0.55056983 0.015450893 0.74000001
-0.54899752 0.015471774 0.74100006
-0.54668117 0.015471774 0.74100006
-0.54509944 0.015492653 0.74200004
-0.54351151 0.015513533 0.74300003
-0.5411889 0.015513533 0.74300003
-0.54104209 0.015576172 0.74600005
-0.53871012 0.015576172 0.74600005
-0.53709716 0.015597051 0.74700004
-0.53476208 0.015597051 0.74700004
-0.53242695 0.015597051 0.74700004
-0.53080148 0.01561793 0.74800003
-0.52846324 0.01561793 0.74800003
-0.64715308 0.015627615 0.65100002
-0.64511812 0.015627615 0.65100002
-0.6430831 0.015627615 0.65100002
-0.64301753 0.015675627 0.65300006
-0.64097631 0.015675627 0.65300006
-0.6399135 0.015699632 0.65400004
-0.63981974 0.015747642 0.65600002
-0.64068574 0.015819659 0.65900004
-0.63862574 0.015819659 0.65900004
-0.63753164 0.015843665 0.66000003
-0.63643134 0.015867671 0.66100001
-0.63436508 0.015867671 0.66100001
-0.63516855 0.015939688 0.66400003
-0.63404638 0.015963692 0.66500002
-0.63481855 0.01603571 0.66800004
-0.63273042 0.01603571 0.66800004
-0.63158637 0.016059715 0.66900003
-0.630436 0.016083721 0.67000002
-0.62834162 0.016083721 0.67000002
-0.62718189 0.016107727 0.671
-0.62694758 0.016155738 0.67300004
-0.62484378 0.016155738 0.67300004
-0.62366533 0.016179742 0.67400002
-0.62248063 0.016203748 0.67500001
-0.62037057 0.016203748 0.67500001
-0.61826056 0.016203748 0.67500001
-0.6170634 0.016227756 0.67600006
-0.61585993 0.01625176 0.67700005
-0.6137436 0.01625176 0.67700005
-0.61253077 0.016275765 0.67800003
-0.61131167 0.016299771 0.67900002
-0.60918909 0.016299771 0.67900002
-0.60796064 0.016323777 0.68000001
-0.60672593 0.016347783 0.68100005
-0.60548496 0.016371788 0.68200004
-0.60335302 0.016371788 0.68200004
-0.6021027 0.016395792 0.68300003
-0.60172451 0.016443806 0.68500006
-0.59958327 0.016443806 0.68500006
-0.59744197 0.016443806 0.68500006
-0.59703875 0.016491815 0.68700004
-0.59489119 0.016491815 0.68700004
-0.59446925 0.016539827 0.68900001
-0.59489453 0.016611842 0.69200003
-0.59444439 0.016659854 0.69400001
-0.59227496 0.016659854 0.69400001
-0.59265649 0.016731871 0.69700003
-0.59217203 0.016779883 0.69900006
-0.58998698 0.016779883 0.69900006
-0.59032464 0.016851898 0.70200002
-0.58896804 0.016875904 0.70300001
-0.58927447 0.016947921 0.70600003
-0.58706754 0.016947921 0.70600003
-0.58651745 0.016995931 0.708
-0.5851295 0.017019939 0.70900005
-0.58291322 0.017019939 0.70900005
-0.58151591 0.017043943 0.71000004
-0.58092833 0.017091954 0.71200001
-0.57870263 0.017091954 0.71200001
-0.5772866 0.01711596 0.71300006
-0.57586432 0.017139966 0.71400005
-0.57443577 0.017163971 0.71500003
-0.57220072 0.017163971 0.71500003
-0.57076281 0.017187975 0.71600002
-0.56931865 0.017211981 0.71700001
-0.56707734 0.017211981 0.71700001
-0.56641155 0.017259993 0.71900004
-0.56651795 0.01733201 0.72200006
-0.56582403 0.017380022 0.72400004
-0.56356084 0.017380022 0.72400004
-0.56284821 0.017428031 0.72600001
-0.56289518 0.017500049 0.72900003
-0.56061637 0.017500049 0.72900003
-0.55986929 0.01754806 0.73100001
-0.55910981 0.017596072 0.73300004
-0.55681843 0.017596072 0.73300004
-0.55604011 0.017644081 0.73500001
-0.55524933 0.017692093 0.73700005
-0.55369574 0.017716099 0.73800004
-0.55138874 0.017716099 0.73800004
-0.54982579 0.017740104 0.73900002
-0.54825658 0.01776411 0.74000001
-0.54594338 0.01776411 0.74000001
-0.54436481 0.017788116 0.74100006
-0.54277998 0.017812122 0.74200004
-0.54046053 0.017812122 0.74200004
-0.54031688 0.017884139 0.74500006
-0.53871012 0.017908143 0.74600005
-0.53637815 0.017908143 0.74600005
-0.53404617 0.017908143 0.74600005
-0.53242695 0.017932149 0.74700004
-0.53080148 0.017956154 0.74800003
-0.52846324 0.017956154 0.74800003
-0.64715308 0.017662622 0.65100002
-0.64511812 0.017662622 0.65100002
-0.6430831 0.017662622 0.65100002
-0.64301753 0.017716885 0.65300006
-0.64097631 0.017716885 0.65300006
-0.6399135 0.017744016 0.65400004
-0.63981974 0.017798278 0.65600002
-0.64068574 0.017879674 0.65900004
-0.63862574 0.017879674 0.65900004
-0.63753164 0.017906806 0.66000003
-0.63643134 0.017933937 0.66100001
-0.63436508 0.017933937 0.66100001
-0.63421196 0.017988201 0.66300005
-0.63404638 0.018042462 0.66500002
-0.63386828 0.018096726 0.66700006
-0.63178325 0.018096726 0.66700006
-0.63064229 0.018123858 0.66800004
-0.62949508 0.018150989 0.66900003
-0.6274038 0.018150989 0.66900003
-0.62718189 0.018205252 0.671
-0.62601602 0.018232385 0.67200005
-0.62391537 0.018232385 0.67200005
-0.62366533 0.018286647 0.67400002
-0.62248063 0.018313779 0.67500001
-0.62037057 0.018313779 0.67500001
-0.61826056 0.018313779 0.67500001
-0.6170634 0.01834091 0.67600006
-0.61585993 0.018368041 0.67700005
-0.6137436 0.018368041 0.67700005
-0.61253077 0.018395172 0.67800003
-0.61131167 0.018422304 0.67900002
-0.60918909 0.018422304 0.67900002
-0.60796064 0.018449435 0.68000001
-0.60672593 0.018476568 0.68100005
-0.60548496 0.018503699 0.68200004
-0.60335302 0.018503699 0.68200004
-0.6021027 0.018530831 0.68300003
-0.60172451 0.018585095 0.68500006
-0.59958327 0.018585095 0.68500006
-0.59744197 0.018585095 0.68500006
-0.59703875 0.018639356 0.68700004
-0.59489119 0.018639356 0.68700004
-0.59533209 0.018720752 0.69000006
-0.59489453 0.018775014 0.69200003
-0.59444439 0.018829277 0.69400001
-0.59227496 0.018829277 0.69400001
-0.59265649 0.018910673 0.69700003
-0.59217203 0.018964935 0.69900006
-0.58998698 0.018964935 0.69900006
-0.59032464 0.019046329 0.70200002
-0.58896804 0.01907346 0.70300001
-0.58927447 0.019154856 0.70600003
-0.58706754 0.019154856 0.70600003
-0.58651745 0.019209119 0.708
-0.5851295 0.01923625 0.70900005
-0.58291322 0.01923625 0.70900005
-0.58151591 0.019263381 0.71000004
-0.5801124 0.019290512 0.71100003
-0.57951546 0.019344777 0.71300006
-0.5772866 0.019344777 0.71300006
-0.57586432 0.019371908 0.71400005
-0.57443577 0.019399039 0.71500003
-0.57220072 0.019399039 0.71500003
-0.57076281 0.019426171 0.71600002
-0.56931865 0.019453302 0.71700001
-0.56707734 0.019453302 0.71700001
-0.56641155 0.019507565 0.71900004
-0.56573331 0.019561827 0.72100002
-0.56504256 0.019616092 0.72300005
-0.56278247 0.019616092 0.72300005
-0.56284821 0.019697485 0.72600001
-0.56289518 0.019778881 0.72900003
-0.56061637 0.019778881 0.72900003
-0.55986929 0.019833142 0.73100001
-0.55910981 0.019887406 0.73300004
-0.55681843 0.019887406 0.73300004
-0.55604011 0.019941669 0.73500001
-0.55524933 0.019995933 0.73700005
-0.55369574 0.020023065 0.73800004
-0.55138874 0.020023065 0.73800004
-0.54982579 0.020050196 0.73900002
-0.54825658 0.020077327 0.74000001
-0.54594338 0.020077327 0.74000001
-0.54436481 0.020104459 0.74100006
-0.54277998 0.02013159 0.74200004
-0.54046053 0.02013159 0.74200004
-0.54031688 0.020212986 0.74500006
-0.53871012 0.020240117 0.74600005
-0.53637815 0.020240117 0.74600005
-0.53404617 0.020240117 0.74600005
-0.53242695 0.020267248 0.74700004
-0.53080148 0.020294379 0.74800003
-0.52846324 0.020294379 0.74800003
-0.64715308 0.019697627 0.65100002
-0.64511812 0.019697627 0.65100002
-0.64407092 0.019727884 0.65200001
-0.64301753 0.019758143 0.65300006
-0.64097631 0.019758143 0.65300006
-0.64089191 0.019818656 0.65500003
-0.63981974 0.019848913 0.65600002
-0.64068574 0.019939687 0.65900004
-0.63862574 0.019939687 0.65900004
-0.63753164 0.019969944 0.66000003
-0.63643134 0.020000201 0.66100001
-0.63436508 0.020000201 0.66100001
-0.63421196 0.020060716 0.66300005
-0.63404638 0.020121232 0.66500002
-0.63386828 0.020181747 0.66700006
-0.63178325 0.020181747 0.66700006
-0.63064229 0.020212004 0.66800004
-0.62949508 0.020242261 0.66900003
-0.6274038 0.020242261 0.66900003
-0.62718189 0.020302776 0.671
-0.62601602 0.020333035 0.67200005
-0.62391537 0.020333035 0.67200005
-0.62366533 0.020393549 0.67400002
-0.62248063 0.020423805 0.67500001
-0.62037057 0.020423805 0.67500001
-0.61826056 0.020423805 0.67500001
-0.6170634 0.020454064 0.67600006
-0.61585993 0.020484323 0.67700005
-0.6137436 0.020484323 0.67700005
-0.61253077 0.020514579 0.67800003
-0.61131167 0.020544836 0.67900002
-0.60918909 0.020544836 0.67900002
-0.60796064 0.020575093 0.68000001
-0.60672593 0.020605352 0.68100005
-0.60548496 0.020635609 0.68200004
-0.60335302 0.020635609 0.68200004
-0.6021027 0.020665865 0.68300003
-0.60172451 0.020726383 0.68500006
-0.59958327 0.020726383 0.68500006
-0.59744197 0.020726383 0.68500006
-0.59703875 0.020786896 0.68700004
-0.59489119 0.020786896 0.68700004
-0.59533209 0.020877669 0.69000006
-0.59489453 0.020938184 0.69200003
-0.59530097 0.021028956 0.69500005
-0.59312844 0.021028956 0.69500005
-0.59265649 0.021089472 0.69700003
-0.59301919 0.021180244 0.70000005
-0.59083104 0.021180244 0.70000005
-0.59032464 0.021240758 0.70200002
-0.58896804 0.021271015 0.70300001
-0.58927447 0.021361789 0.70600003
-0.58706754 0.021361789 0.70600003
-0.58651745 0.021422302 0.708
-0.5851295 0.021452561 0.70900005
-0.58291322 0.021452561 0.70900005
-0.58151591 0.021482818 0.71000004
-0.5801124 0.021513076 0.71100003
-0.57951546 0.021573592 0.71300006
-0.5772866 0.021573592 0.71300006
-0.57586432 0.021603849 0.71400005
-0.57443577 0.021634106 0.71500003
-0.57220072 0.021634106 0.71500003
-0.57076281 0.021664362 0.71600002
-0.56931865 0.021694621 0.71700001
-0.56707734 0.021694621 0.71700001
-0.56641155 0.021755137 0.71900004
-0.56573331 0.02181565 0.72100002
-0.56504256 0.021876166 0.72300005
-0.56278247 0.021876166 0.72300005
-0.56284821 0.021966938 0.72600001
-0.56289518 0.02205771 0.72900003
-0.56061637 0.02205771 0.72900003
-0.55986929 0.022118226 0.73100001
-0.55910981 0.022178741 0.73300004
-0.55833769 0.022239255 0.73500001
-0.55604011 0.022239255 0.73500001
-0.55524933 0.022299772 0.73700005
-0.55369574 0.022330029 0.73800004
-0.55138874 0.022330029 0.73800004
-0.54982579 0.022360286 0.73900002
-0.54825658 0.022390543 0.74000001
-0.54594338 0.022390543 0.74000001
-0.54436481 0.022420801 0.74100006
-0.54277998 0.022451058 0.74200004
-0.54046053 0.022451058 0.74200004
-0.54031688 0.022541832 0.74500006
-0.53871012 0.022572089 0.74600005
-0.53637815 0.022572089 0.74600005
-0.53404617 0.022572089 0.74600005
-0.53242695 0.022602346 0.74700004
-0.53080148 0.022632603 0.74800003
-0.52846324 0.022632603 0.74800003
-0.64715308 0.021732632 0.65100002
-0.64511812 0.021732632 0.65100002
-0.64407092 0.021766016 0.65200001
-0.64400226 0.021832783 0.65400004
-0.64195788 0.021832783 0.65400004
-0.64187038 0.021899549 0.65600002
-0.64079505 0.021932933 0.65700001
-0.64068574 0.0219997 0.65900004
-0.63862574 0.0219997 0.65900004
-0.63753164 0.022033084 0.66000003
-0.63643134 0.022066467 0.66100001
-0.63436508 0.022066467 0.66100001
-0.63421196 0.022133235 0.66300005
-0.63404638 0.022200001 0.66500002
-0.63386828 0.02226677 0.66700006
-0.63178325 0.02226677 0.66700006
-0.63064229 0.022300152 0.66800004
-0.62949508 0.022333534 0.66900003
-0.6274038 0.022333534 0.66900003
-0.62718189 0.022400301 0.671
-0.62601602 0.022433685 0.67200005
-0.62391537 0.022433685 0.67200005
-0.62366533 0.022500452 0.67400002
-0.62248063 0.022533836 0.67500001
-0.62037057 0.022533836 0.67500001
-0.61826056 0.022533836 0.67500001
-0.6170634 0.02256722 0.67600006
-0.61585993 0.022600602 0.67700005
-0.6137436 0.022600602 0.67700005
-0.61253077 0.022633987 0.67800003
-0.61131167 0.022667369 0.67900002
-0.60918909 0.022667369 0.67900002
-0.60796064 0.022700753 0.68000001
-0.60672593 0.022734137 0.68100005
-0.60548496 0.02276752 0.68200004
-0.60335302 0.02276752 0.68200004
-0.6021027 0.022800904 0.68300003
-0.60172451 0.022867672 0.68500006
-0.59958327 0.022867672 0.68500006
-0.59744197 0.022867672 0.68500006
-0.59703875 0.022934437 0.68700004
-0.59489119 0.022934437 0.68700004
-0.59533209 0.023034589 0.69000006
-0.59489453 0.023101354 0.69200003
-0.59530097 0.023201507 0.69500005
-0.59312844 0.023201507 0.69500005
-0.59265649 0.023268271 0.69700003
-0.59301919 0.023368422 0.70000005
-0.59083104 0.023368422 0.70000005
-0.59032464 0.023435188 0.70200002
-0.58896804 0.023468573 0.70300001
-0.58927447 0.023568723 0.70600003
-0.58706754 0.023568723 0.70600003
-0.58651745 0.02363549 0.708
-0.5851295 0.023668874 0.70900005
-0.58291322 0.023668874 0.70900005
-0.58151591 0.023702256 0.71000004
-0.5801124 0.023735641 0.71100003
-0.57870263 0.023769023 0.71200001
-0.57647693 0.023769023 0.71200001
-0.5750578 0.023802409 0.71300006
-0.57363242 0.023835791 0.71400005
-0.57140046 0.023835791 0.71400005
-0.57076281 0.023902558 0.71600002
-0.56931865 0.02393594 0.71700001
-0.56707734 0.02393594 0.71700001
-0.56641155 0.024002708 0.71900004
-0.56573331 0.024069475 0.72100002
-0.56504256 0.024136242 0.72300005
-0.56278247 0.024136242 0.72300005
-0.56207293 0.024203008 0.72500002
-0.56212306 0.024303159 0.72800004
-0.55984735 0.024303159 0.72800004
-0.55986929 0.024403309 0.73100001
-0.55910981 0.024470076 0.73300004
-0.55833769 0.024536842 0.73500001
-0.55604011 0.024536842 0.73500001
-0.55524933 0.024603611 0.73700005
-0.55369574 0.024636993 0.73800004
-0.55138874 0.024636993 0.73800004
-0.55056983 0.02470376 0.74000001
-0.54825658 0.02470376 0.74000001
-0.54594338 0.02470376 0.74000001
-0.54436481 0.024737146 0.74100006
-0.54351151 0.02480391 0.74300003
-0.54264569 0.024870679 0.74500006
-0.54031688 0.024870679 0.74500006
-0.53871012 0.024904061 0.74600005
-0.53709716 0.024937445 0.74700004
-0.53476208 0.024937445 0.74700004
-0.53242695 0.024937445 0.74700004
-0.53080148 0.024970828 0.74800003
-0.52846324 0.024970828 0.74800003
-0.64715308 0.023767639 0.65100002
-0.64511812 0.023767639 0.65100002
-0.64407092 0.023804147 0.65200001
-0.64400226 0.023877168 0.65400004
-0.64195788 0.023877168 0.65400004
-0.64187038 0.023950186 0.65600002
-0.64079505 0.023986695 0.65700001
-0.64068574 0.024059715 0.65900004
-0.63862574 0.024059715 0.65900004
-0.63753164 0.024096224 0.66000003
-0.63643134 0.024132732 0.66100001
-0.63436508 0.024132732 0.66100001
-0.63421196 0.024205752 0.66300005
-0.63404638 0.024278771 0.66500002
-0.63386828 0.024351791 0.66700006
-0.63178325 0.024351791 0.66700006
-0.63064229 0.0243883 0.66800004
-0.62949508 0.024424808 0.66900003
-0.6274038 0.024424808 0.66900003
-0.62718189 0.024497826 0.671
-0.62601602 0.024534337 0.67200005
-0.62391537 0.024534337 0.67200005
-0.62274003 0.024570847 0.67300004
-0.62248063 0.024643864 0.67500001
-0.62037057 0.024643864 0.67500001
-0.61826056 0.024643864 0.67500001
-0.6170634 0.024680376 0.67600006
-0.61585993 0.024716884 0.67700005
-0.6137436 0.024716884 0.67700005
-0.61253077 0.024753394 0.67800003
-0.61131167 0.024789903 0.67900002
-0.60918909 0.024789903 0.67900002
-0.60796064 0.024826411 0.68000001
-0.60672593 0.024862923 0.68100005
-0.60548496 0.024899432 0.68200004
-0.60335302 0.024899432 0.68200004
-0.6021027 0.02493594 0.68300003
-0.60172451 0.02500896 0.68500006
-0.59958327 0.02500896 0.68500006
-0.59831411 0.025045469 0.68600005
-0.59790778 0.025118487 0.68800002
-0.597489 0.025191508 0.69000006
-0.59533209 0.025191508 0.69000006
-0.59489453 0.025264526 0.69200003
-0.59530097 0.025374055 0.69500005
-0.59312844 0.025374055 0.69500005
-0.59265649 0.025447072 0.69700003
-0.59301919 0.025556602 0.70000005
-0.59083104 0.025556602 0.70000005
-0.59032464 0.025629619 0.70200002
-0.58980584 0.025702639 0.70400006
-0.58927447 0.025775658 0.70600003
-0.58706754 0.025775658 0.70600003
-0.58651745 0.025848676 0.708
-0.5851295 0.025885187 0.70900005
-0.58291322 0.025885187 0.70900005
-0.58151591 0.025921695 0.71000004
-0.5801124 0.025958205 0.71100003
-0.57870263 0.025994712 0.71200001
-0.57647693 0.025994712 0.71200001
-0.5750578 0.026031224 0.71300006
-0.57363242 0.026067734 0.71400005
-0.57140046 0.026067734 0.71400005
-0.56996566 0.026104242 0.71500003
-0.56931865 0.026177261 0.71700001
-0.56707734 0.026177261 0.71700001
-0.56641155 0.02625028 0.71900004
-0.56573331 0.026323298 0.72100002
-0.56504256 0.026396319 0.72300005
-0.56278247 0.026396319 0.72300005
-0.56207293 0.026469337 0.72500002
-0.56212306 0.026578866 0.72800004
-0.55984735 0.026578866 0.72800004
-0.55986929 0.026688391 0.73100001
-0.55910981 0.026761413 0.73300004
-0.55833769 0.02683443 0.73500001
-0.55604011 0.02683443 0.73500001
-0.55600268 0.026943959 0.73800004
-0.55444598 0.026980469 0.73900002
-0.55213588 0.026980469 0.73900002
-0.55056983 0.027016977 0.74000001
-0.54899752 0.027053488 0.74100006
-0.54668117 0.027053488 0.74100006
-0.54509944 0.027089998 0.74200004
-0.54351151 0.027126506 0.74300003
-0.54337406 0.027236035 0.74600005
-0.54104209 0.027236035 0.74600005
-0.53943223 0.027272545 0.74700004
-0.53709716 0.027272545 0.74700004
-0.53476208 0.027272545 0.74700004
-0.53313971 0.027309053 0.74800003
-0.53151113 0.027345562 0.74900001
-0.52916974 0.027345562 0.74900001
-0.64715308 0.025802642 0.65100002
-0.64511812 0.025802642 0.65100002
-0.64505881 0.025881914 0.65300006
-0.64498693 0.025961185 0.65500003
-0.64392102 0.026000818 0.65600002
-0.64187038 0.026000818 0.65600002
-0.64177042 0.026080091 0.65800005
-0.64165795 0.026159361 0.66000003
-0.63959479 0.026159361 0.66000003
-0.63849759 0.026198996 0.66100001
-0.63739419 0.026238633 0.66200006
-0.63532478 0.026238633 0.66200006
-0.63421196 0.026278269 0.66300005
-0.63404638 0.026357537 0.66500002
-0.63291788 0.026397172 0.66600001
-0.63083601 0.026397172 0.66600001
-0.63064229 0.026476445 0.66800004
-0.62949508 0.02651608 0.66900003
-0.6274038 0.02651608 0.66900003
-0.62624723 0.026555715 0.67000002
-0.62601602 0.026634987 0.67200005
-0.62391537 0.026634987 0.67200005
-0.62274003 0.026674621 0.67300004
-0.62248063 0.026753891 0.67500001
-0.62037057 0.026753891 0.67500001
-0.61826056 0.026753891 0.67500001
-0.6170634 0.026793528 0.67600006
-0.61585993 0.026833164 0.67700005
-0.6137436 0.026833164 0.67700005
-0.61253077 0.026872799 0.67800003
-0.61131167 0.026912434 0.67900002
-0.61008626 0.026952067 0.68000001
-0.60796064 0.026952067 0.68000001
-0.60672593 0.026991704 0.68100005
-0.60548496 0.02703134 0.68200004
-0.60335302 0.02703134 0.68200004
-0.60298419 0.02711061 0.68400002
-0.60172451 0.027150247 0.68500006
-0.59958327 0.027150247 0.68500006
-0.59831411 0.027189882 0.68600005
-0.59790778 0.027269151 0.68800002
-0.597489 0.027348423 0.69000006
-0.59533209 0.027348423 0.69000006
-0.59575415 0.027467329 0.69300002
-0.59530097 0.027546601 0.69500005
-0.59312844 0.027546601 0.69500005
-0.59350675 0.027665505 0.69800001
-0.59301919 0.027744778 0.70000005
-0.5925191 0.027824048 0.70200002
-0.59032464 0.027824048 0.70200002
-0.58980584 0.02790332 0.70400006
-0.58927447 0.027982589 0.70600003
-0.58706754 0.027982589 0.70600003
-0.58651745 0.028061859 0.708
-0.5851295 0.028101496 0.70900005
-0.58291322 0.028101496 0.70900005
-0.58151591 0.028141132 0.71000004
-0.5801124 0.028180767 0.71100003
-0.57870263 0.0282204 0.71200001
-0.57647693 0.0282204 0.71200001
-0.5750578 0.028260037 0.71300006
-0.57363242 0.028299673 0.71400005
-0.57140046 0.028299673 0.71400005
-0.56996566 0.028339308 0.71500003
-0.56931865 0.028418578 0.71700001
-0.56707734 0.028418578 0.71700001
-0.56641155 0.028497851 0.71900004
-0.56573331 0.028577119 0.72100002
-0.56504256 0.028656391 0.72300005
-0.56278247 0.028656391 0.72300005
-0.56207293 0.028735662 0.72500002
-0.56212306 0.028854568 0.72800004
-0.55984735 0.028854568 0.72800004
-0.55986929 0.028973473 0.73100001
-0.55910981 0.029052746 0.73300004
-0.55909741 0.029171653 0.73600006
-0.55679667 0.029171653 0.73600006
-0.55600268 0.029250922 0.73800004
-0.55444598 0.029290557 0.73900002
-0.55213588 0.029290557 0.73900002
-0.55131388 0.029369829 0.74100006
-0.54973841 0.029409464 0.74200004
-0.54741895 0.029409464 0.74200004
-0.54583406 0.0294491 0.74300003
-0.54497457 0.02952837 0.74500006
-0.54410243 0.029607641 0.74700004
-0.54176736 0.029607641 0.74700004
-0.53943223 0.029607641 0.74700004
-0.53709716 0.029607641 0.74700004
-0.53476208 0.029607641 0.74700004
-0.53313971 0.029647276 0.74800003
-0.53151113 0.029686911 0.74900001
-0.52916974 0.029686911 0.74900001
-0.64814717 0.02788041 0.65200001
-0.64610904 0.02788041 0.65200001
-0.64505881 0.027923172 0.65300006
-0.64498693 0.028008694 0.65500003
-0.64392102 0.028051455 0.65600002
-0.64187038 0.028051455 0.65600002
-0.64177042 0.02813698 0.65800005
-0.64068574 0.028179741 0.65900004
-0.63862574 0.028179741 0.65900004
-0.63849759 0.028265262 0.66100001
-0.63739419 0.028308025 0.66200006
-0.63532478 0.028308025 0.66200006
-0.63421196 0.028350785 0.66300005
-0.63404638 0.028436307 0.66500002
-0.63291788 0.028479068 0.66600001
-0.63083601 0.028479068 0.66600001
-0.63064229 0.028564593 0.66800004
-0.62949508 0.028607354 0.66900003
-0.6274038 0.028607354 0.66900003
-0.62624723 0.028650114 0.67000002
-0.62601602 0.028735638 0.67200005
-0.62484378 0.028778398 0.67300004
-0.62274003 0.028778398 0.67300004
-0.62248063 0.02886392 0.67500001
-0.62037057 0.02886392 0.67500001
-0.61826056 0.02886392 0.67500001
-0.6170634 0.028906684 0.67600006
-0.61585993 0.028949445 0.67700005
-0.6137436 0.028949445 0.67700005
-0.61253077 0.028992206 0.67800003
-0.61131167 0.029034967 0.67900002
-0.61008626 0.029077727 0.68000001
-0.60796064 0.029077727 0.68000001
-0.60672593 0.02912049 0.68100005
-0.60548496 0.029163251 0.68200004
-0.60335302 0.029163251 0.68200004
-0.60298419 0.029248772 0.68400002
-0.60172451 0.029291537 0.68500006
-0.59958327 0.029291537 0.68500006
-0.59831411 0.029334297 0.68600005
-0.59790778 0.029419819 0.68800002
-0.597489 0.029505342 0.69000006
-0.59533209 0.029505342 0.69000006
-0.59575415 0.029633626 0.69300002
-0.59530097 0.02971915 0.69500005
-0.59312844 0.02971915 0.69500005
-0.59350675 0.029847432 0.69800001
-0.59301919 0.029932955 0.70000005
-0.5925191 0.030018479 0.70200002
-0.59032464 0.030018479 0.70200002
-0.58980584 0.030104002 0.70400006
-0.58927447 0.030189523 0.70600003
-0.58706754 0.030189523 0.70600003
-0.58651745 0.030275045 0.708
-0.5851295 0.030317809 0.70900005
-0.58291322 0.030317809 0.70900005
-0.58151591 0.03036057 0.71000004
-0.5801124 0.030403331 0.71100003
-0.57870263 0.030446092 0.71200001
-0.57647693 0.030446092 0.71200001
-0.5750578 0.030488854 0.71300006
-0.57363242 0.030531615 0.71400005
-0.57140046 0.030531615 0.71400005
-0.56996566 0.030574376 0.71500003
-0.56931865 0.030659897 0.71700001
-0.56707734 0.030659897 0.71700001
-0.56641155 0.030745422 0.71900004
-0.56573331 0.030830944 0.72100002
-0.56504256 0.030916467 0.72300005
-0.56278247 0.030916467 0.72300005
-0.56207293 0.031001989 0.72500002
-0.56212306 0.031130275 0.72800004
-0.55984735 0.031130275 0.72800004
-0.55986929 0.031258557 0.73100001
-0.55910981 0.031344082 0.73300004
-0.55909741 0.031472366 0.73600006
-0.55679667 0.031472366 0.73600006
-0.55600268 0.031557888 0.73800004
-0.55444598 0.031600647 0.73900002
-0.55213588 0.031600647 0.73900002
-0.55131388 0.031686172 0.74100006
-0.54973841 0.031728934 0.74200004
-0.54741895 0.031728934 0.74200004
-0.54583406 0.031771693 0.74300003
-0.54497457 0.031857219 0.74500006
-0.54410243 0.03194274 0.74700004
-0.54176736 0.03194274 0.74700004
-0.53943223 0.03194274 0.74700004
-0.53781617 0.031985499 0.74800003
-0.53547794 0.031985499 0.74800003
-0.53313971 0.031985499 0.74800003
-0.53151113 0.032028262 0.74900001
-0.52916974 0.032028262 0.74900001
-0.64814717 0.02991854 0.65200001
-0.64610904 0.02991854 0.65200001
-0.64505881 0.02996443 0.65300006
-0.64498693 0.030056205 0.65500003
-0.64392102 0.030102091 0.65600002
-0.64187038 0.030102091 0.65600002
-0.64177042 0.030193867 0.65800005
-0.64068574 0.030239753 0.65900004
-0.63862574 0.030239753 0.65900004
-0.63849759 0.030331528 0.66100001
-0.63643134 0.030331528 0.66100001
-0.63436508 0.030331528 0.66100001
-0.63421196 0.030423304 0.66300005
-0.63404638 0.030515077 0.66500002
-0.63291788 0.030560963 0.66600001
-0.63083601 0.030560963 0.66600001
-0.63064229 0.030652739 0.66800004
-0.62949508 0.030698627 0.66900003
-0.6274038 0.030698627 0.66900003
-0.62624723 0.030744513 0.67000002
-0.62601602 0.03083629 0.67200005
-0.62484378 0.030882176 0.67300004
-0.62274003 0.030882176 0.67300004
-0.62248063 0.03097395 0.67500001
-0.62037057 0.03097395 0.67500001
-0.61826056 0.03097395 0.67500001
-0.6170634 0.031019839 0.67600006
-0.61585993 0.031065727 0.67700005
-0.6137436 0.031065727 0.67700005
-0.61253077 0.031111613 0.67800003
-0.61131167 0.031157499 0.67900002
-0.61008626 0.031203385 0.68000001
-0.60796064 0.031203385 0.68000001
-0.60672593 0.031249275 0.68100005
