# .PCD v0.7 - Point Cloud Data file format
VERSION 0.7
FIELDS x y z
SIZE 4 4 4
TYPE F F F
COUNT 1 1 1
WIDTH 1428
HEIGHT 1
VIEWPOINT 0 0 0 1 0 0 0
POINTS 1428
DATA ascii
-0.14388266 0.35764182 0.78000003
-0.14271379 0.36085144 0.78700006
-0.14025365 0.36085144 0.78700006
-0.13779351 0.36085144 0.78700006
-0.13550533 0.36130995 0.78800005
-0.13354857 0.36268547 0.79100001
-0.13140735 0.36360252 0.79300004
-0.12892847 0.36360252 0.79300004
-0.12660901 0.36406103 0.79400003
-0.12459599 0.36543658 0.79700005
-0.1221046 0.36543658 0.79700005
-0.11991336 0.3663536 0.79900002
-0.11770962 0.36727065 0.80100006
-0.11549338 0.36818767 0.80300003
-0.11298321 0.36818767 0.80300003
-0.11047307 0.36818767 0.80300003
-0.10809736 0.36864617 0.80400002
-0.10558408 0.36864617 0.80400002
-0.10307081 0.36864617 0.80400002
-0.10055752 0.36864617 0.80400002
-0.098044254 0.36864617 0.80400002
-0.095530972 0.36864617 0.80400002
-0.09301769 0.36864617 0.80400002
-0.090504415 0.36864617 0.80400002
-0.088210016 0.36956322 0.80600005
-0.085690491 0.36956322 0.80600005
-0.083274148 0.37002173 0.80700004
-0.080751494 0.37002173 0.80700004
-0.078325771 0.37048024 0.80800003
-0.075987615 0.37139729 0.81000006
-0.07345558 0.37139729 0.81000006
-0.070923552 0.37139729 0.81000006
-0.068391509 0.37139729 0.81000006
-0.065859482 0.37139729 0.81000006
-0.063327447 0.37139729 0.81000006
-0.060870465 0.3718558 0.81100005
-0.058335304 0.3718558 0.81100005
-0.055868942 0.3723143 0.81200004
-0.05333066 0.3723143 0.81200004
-0.050792374 0.3723143 0.81200004
-0.048194662 0.3718558 0.81100005
-0.045603201 0.37139729 0.81000006
-0.043071166 0.37139729 0.81000006
-0.040439036 0.37048024 0.80800003
-0.037866332 0.37002173 0.80700004
-0.035343673 0.37002173 0.80700004
-0.032821015 0.37002173 0.80700004
-0.030335905 0.37048024 0.80800003
-0.027810123 0.37048024 0.80800003
-0.025253048 0.37002173 0.80700004
-0.022730391 0.37002173 0.80700004
-0.020207735 0.37002173 0.80700004
-0.017685078 0.37002173 0.80700004
-0.015162422 0.37002173 0.80700004
-0.012624103 0.36956322 0.80600005
-0.010104572 0.36956322 0.80600005
-0.0075850417 0.36956322 0.80600005
-0.0050655114 0.36956322 0.80600005
-0.0025459807 0.36956322 0.80600005
-2.645015e-05 0.36956322 0.80600005
0.0024868939 0.36864617 0.80400002
0.0050001722 0.36864617 0.80400002
0.0075134509 0.36864617 0.80400002
0.01002673 0.36864617 0.80400002
0.012540008 0.36864617 0.80400002
0.015034564 0.36818767 0.80300003
0.017544717 0.36818767 0.80300003
0.020054869 0.36818767 0.80300003
0.022593124 0.36864617 0.80400002
0.0251064 0.36864617 0.80400002
0.02761968 0.36864617 0.80400002
0.030207919 0.36956322 0.80600005
0.032727446 0.36956322 0.80600005
0.035290707 0.37002173 0.80700004
0.037813365 0.37002173 0.80700004
0.04033602 0.37002173 0.80700004
0.042858679 0.37002173 0.80700004
0.045437571 0.37048024 0.80800003
0.047963351 0.37048024 0.80800003
0.050614107 0.37139729 0.81000006
0.053146143 0.37139729 0.81000006
0.055678174 0.37139729 0.81000006
0.058210213 0.37139729 0.81000006
0.060592264 0.37048024 0.80800003
0.063118041 0.37048024 0.80800003
0.065562591 0.37002173 0.80700004
0.068000875 0.36956322 0.80600005
0.070520408 0.36956322 0.80600005
0.073039941 0.36956322 0.80600005
0.075559467 0.36956322 0.80600005
0.078079 0.36956322 0.80600005
0.080598526 0.36956322 0.80600005
0.083118059 0.36956322 0.80600005
0.085637592 0.36956322 0.80600005
0.088157117 0.36956322 0.80600005
0.09067665 0.36956322 0.80600005
0.093311809 0.37002173 0.80700004
0.095834464 0.37002173 0.80700004
0.098357119 0.37002173 0.80700004
0.10100479 0.37048024 0.80800003
0.10353056 0.37048024 0.80800003
0.10605635 0.37048024 0.80800003
0.1088509 0.37139729 0.81000006
0.11152045 0.3718558 0.81100005
0.1140556 0.3718558 0.81100005
0.11673453 0.3723143 0.81200004
0.11927281 0.3723143 0.81200004
0.1219611 0.37277281 0.81300002
0.12450252 0.37277281 0.81300002
0.12735647 0.37368986 0.81500006
0.12990414 0.37368986 0.81500006
0.13212676 0.37277281 0.81300002
0.13466817 0.37277281 0.81300002
0.13754712 0.37368986 0.81500006
0.139751 0.37277281 0.81300002
0.14229241 0.37277281 0.81300002
0.14483382 0.37277281 0.81300002
0.14737523 0.37277281 0.81300002
0.14991663 0.37277281 0.81300002
0.15245806 0.37277281 0.81300002
0.15499948 0.37277281 0.81300002
0.15754089 0.37277281 0.81300002
0.16165753 0.37644094 0.82100004
0.16422394 0.37644094 0.82100004
0.16679035 0.37644094 0.82100004
0.16935679 0.37644094 0.82100004
0.17192321 0.37644094 0.82100004
0.1742771 0.37598243 0.82000005
0.17662473 0.37552392 0.81900007
0.1791849 0.37552392 0.81900007
0.18130125 0.37460688 0.81700003
0.18363012 0.37414837 0.81600004
0.1861809 0.37414837 0.81600004
0.18850042 0.37368986 0.81500006
0.19104807 0.37368986 0.81500006
0.19312064 0.37277281 0.81300002
0.19566207 0.37277281 0.81300002
0.19820347 0.37277281 0.81300002
0.2007449 0.37277281 0.81300002
0.20328631 0.37277281 0.81300002
0.20582771 0.37277281 0.81300002
0.20888172 0.37368986 0.81500006
0.2116888 0.37414837 0.81600004
0.2142396 0.37414837 0.81600004
0.21705608 0.37460688 0.81700003
0.2204164 0.37598243 0.82000005
0.22325161 0.37644094 0.82100004
0.22581802 0.37644094 0.82100004
0.2289408 0.37735796 0.82300001
0.23179479 0.3778165 0.82400006
0.23437057 0.3778165 0.82400006
0.23723392 0.37827501 0.82500005
0.2403942 0.37919202 0.82700002
0.24297938 0.37919202 0.82700002
0.24556455 0.37919202 0.82700002
0.24844983 0.37965056 0.82800007
0.25103813 0.37965056 0.82800007
0.25393274 0.38010907 0.82900006
0.25652418 0.38010907 0.82900006
0.25911558 0.38010907 0.82900006
0.26170701 0.38010907 0.82900006
0.26429844 0.38010907 0.82900006
0.26688987 0.38010907 0.82900006
0.2694813 0.38010907 0.82900006
0.2727291 0.38102609 0.83100003
0.27532676 0.38102609 0.83100003
0.27792445 0.38102609 0.83100003
0.28085971 0.3814846 0.83200002
0.28346053 0.3814846 0.83200002
0.28606132 0.3814846 0.83200002
0.28900909 0.38194314 0.83300006
0.29266325 0.38331866 0.83600003
0.29527655 0.38331866 0.83600003
0.29788986 0.38331866 0.83600003
0.30050316 0.38331866 0.83600003
0.30311647 0.38331866 0.83600003
0.30572978 0.38331866 0.83600003
0.30871192 0.38377717 0.83700001
0.31132835 0.38377717 0.83700001
0.31356972 0.38331866 0.83600003
0.31580481 0.38286015 0.83500004
0.31841502 0.38286015 0.83500004
0.32102519 0.38286015 0.83500004
0.32363537 0.38286015 0.83500004
0.32546413 0.38194314 0.83300006
0.32806805 0.38194314 0.83300006
0.330672 0.38194314 0.83300006
0.33327591 0.38194314 0.83300006
0.33587986 0.38194314 0.83300006
0.33848381 0.38194314 0.83300006
0.34108773 0.38194314 0.83300006
0.34369168 0.38194314 0.83300006
0.3462956 0.38194314 0.83300006
0.34889951 0.38194314 0.83300006
0.35150346 0.38194314 0.83300006
0.35410738 0.38194314 0.83300006
0.35756776 0.38286015 0.83500004
0.36017793 0.38286015 0.83500004
0.3632226 0.38331866 0.83600003
0.36583591 0.38331866 0.83600003
0.36844921 0.38331866 0.83600003
0.37106252 0.38331866 0.83600003
0.37367585 0.38331866 0.83600003
0.37628916 0.38331866 0.83600003
0.37890247 0.38331866 0.83600003
0.38151577 0.38331866 0.83600003
0.38412908 0.38331866 0.83600003
0.38674238 0.38331866 0.83600003
0.38935569 0.38331866 0.83600003
0.391969 0.38331866 0.83600003
0.3945823 0.38331866 0.83600003
0.39719564 0.38331866 0.83600003
0.39980894 0.38331866 0.83600003
0.40242225 0.38331866 0.83600003
0.40503556 0.38331866 0.83600003
0.40764886 0.38331866 0.83600003
0.41026217 0.38331866 0.83600003
0.41336933 0.38377717 0.83700001
0.41548878 0.38331866 0.83600003
0.41810212 0.38331866 0.83600003
0.42121866 0.38377717 0.83700001
0.4238351 0.38377717 0.83700001
0.42645153 0.38377717 0.83700001
0.42906797 0.38377717 0.83700001
0.4316844 0.38377717 0.83700001
0.43533862 0.38469422 0.83900005
0.43796128 0.38469422 0.83900005
0.44110909 0.38515273 0.84000003
0.44373491 0.38515273 0.84000003
0.44742349 0.38606977 0.84200007
0.45005557 0.38606977 0.84200007
0.45268762 0.38606977 0.84200007
0.4553197 0.38606977 0.84200007
0.45795175 0.38606977 0.84200007
0.46058381 0.38606977 0.84200007
0.46376601 0.38652828 0.84300005
0.46640119 0.38652828 0.84300005
0.4690364 0.38652828 0.84300005
0.47111207 0.38606977 0.84200007
0.47374418 0.38606977 0.84200007
0.47637624 0.38606977 0.84200007
0.47900832 0.38606977 0.84200007
0.48164037 0.38606977 0.84200007
0.4894487 0.39019638 0.85100001
0.49210891 0.39019638 0.85100001
0.4947691 0.39019638 0.85100001
0.49742931 0.39019638 0.85100001
0.50008953 0.39019638 0.85100001
0.50215894 0.38973787 0.85000002
0.504816 0.38973787 0.85000002
0.50747305 0.38973787 0.85000002
0.51013017 0.38973787 0.85000002
0.51278722 0.38973787 0.85000002
0.51544428 0.38973787 0.85000002
0.51810133 0.38973787 0.85000002
0.52075845 0.38973787 0.85000002
0.52403128 0.39019638 0.85100001
0.52669144 0.39019638 0.85100001
0.52872962 0.38973787 0.85000002
0.53138673 0.38973787 0.85000002
0.53404379 0.38973787 0.85000002
0.5367009 0.38973787 0.85000002
0.53935796 0.38973787 0.85000002
0.54201502 0.38973787 0.85000002
0.54467213 0.38973787 0.85000002
0.54732919 0.38973787 0.85000002
0.55063331 0.39019638 0.85100001
0.55329347 0.39019638 0.85100001
0.55595368 0.39019638 0.85100001
0.5586139 0.39019638 0.85100001
0.56127405 0.39019638 0.85100001
0.56393427 0.39019638 0.85100001
0.56659448 0.39019638 0.85100001
0.56925464 0.39019638 0.85100001
0.57191485 0.39019638 0.85100001
0.57592541 0.39111343 0.85300004
0.57859188 0.39111343 0.85300004
0.58125836 0.39111343 0.85300004
0.58392477 0.39111343 0.85300004
0.58659124 0.39111343 0.85300004
0.58925766 0.39111343 0.85300004
0.59192413 0.39111343 0.85300004
0.5945906 0.39111343 0.85300004
0.59725708 0.39111343 0.85300004
0.60062683 0.39157194 0.85400003
0.6032964 0.39157194 0.85400003
0.60596597 0.39157194 0.85400003
0.61006093 0.39248899 0.85600007
0.61273676 0.39248899 0.85600007
0.61541259 0.39248899 0.85600007
0.61664426 0.39157194 0.85400003
0.61931384 0.39157194 0.85400003
0.62198341 0.39157194 0.85400003
0.62465298 0.39157194 0.85400003
0.62879175 0.39248899 0.85600007
0.63220525 0.39294749 0.85700005
0.63488418 0.39294749 0.85700005
0.63905102 0.39386451 0.85900003
0.64173621 0.39386451 0.85900003
0.64442146 0.39386451 0.85900003
0.64785993 0.39432302 0.86000001
0.65054828 0.39432302 0.86000001
0.65323663 0.39432302 0.86000001
0.65668768 0.39478156 0.86100006
0.66167659 0.39615709 0.86400002
0.66437751 0.39615709 0.86400002
0.66707832 0.39615709 0.86400002
0.66977918 0.39615709 0.86400002
0.67247999 0.39615709 0.86400002
0.67518085 0.39615709 0.86400002
0.67945087 0.39707413 0.86600006
0.68215793 0.39707413 0.86600006
0.68486506 0.39707413 0.86600006
0.68757212 0.39707413 0.86600006
0.69027919 0.39707413 0.86600006
0.69138581 0.39615709 0.86400002
0.69408667 0.39615709 0.86400002
0.69678748 0.39615709 0.86400002
0.69948834 0.39615709 0.86400002
0.70218915 0.39615709 0.86400002
0.70489001 0.39615709 0.86400002
0.70759082 0.39615709 0.86400002
0.71029168 0.39615709 0.86400002
0.71299249 0.39615709 0.86400002
0.71569335 0.39615709 0.86400002
0.71839416 0.39615709 0.86400002
0.72276425 0.39707413 0.86600006
0.72547132 0.39707413 0.86600006
0.72817844 0.39707413 0.86600006
0.73088557 0.39707413 0.86600006
0.73443973 0.39753264 0.86700004
0.73714995 0.39753264 0.86700004
0.73986018 0.39753264 0.86700004
0.74257034 0.39753264 0.86700004
0.74528056 0.39753264 0.86700004
0.74712807 0.39707413 0.86600006
0.74983513 0.39707413 0.86600006
0.75254226 0.39707413 0.86600006
0.75524932 0.39707413 0.86600006
0.75795645 0.39707413 0.86600006
0.76066351 0.39707413 0.86600006
0.76337057 0.39707413 0.86600006
0.76696229 0.39753264 0.86700004
0.77144796 0.39844966 0.86900002
0.77416444 0.39844966 0.86900002
0.77777493 0.3989082 0.87000006
0.78049451 0.3989082 0.87000006
0.78321409 0.3989082 0.87000006
0.78774041 0.39982522 0.87200004
0.79046625 0.39982522 0.87200004
0.79592103 0.40120077 0.87500006
0.79865628 0.40120077 0.87500006
0.80230737 0.40165928 0.87600005
0.80504566 0.40165928 0.87600005
0.80778402 0.40165928 0.87600005
0.81052238 0.40165928 0.87600005
0.81326073 0.40165928 0.87600005
0.81599909 0.40165928 0.87600005
0.81873745 0.40165928 0.87600005
0.82147574 0.40165928 0.87600005
0.8242141 0.40165928 0.87600005
0.82884043 0.4025763 0.87800002
0.83253223 0.40303484 0.87900007
0.83527994 0.40303484 0.87900007
0.83802766 0.40303484 0.87900007
0.84938401 0.40716147 0.88800007
0.85215986 0.40716147 0.88800007
0.85493577 0.40716147 0.88800007
0.85964334 0.40807849 0.89000005
0.86242545 0.40807849 0.89000005
0.86520755 0.40807849 0.89000005
0.86798966 0.40807849 0.89000005
0.87077183 0.40807849 0.89000005
0.87355393 0.40807849 0.89000005
0.87633604 0.40807849 0.89000005
0.8791182 0.40807849 0.89000005
0.88190031 0.40807849 0.89000005
0.88269436 0.40716147 0.88800007
0.88447303 0.40670294 0.88700002
0.88724577 0.40670294 0.88700002
0.89001846 0.40670294 0.88700002
-0.72668034 0.33745965 0.73100001
-0.72439528 0.33745965 0.73100001
-0.72211015 0.33745965 0.73100001
-0.71982509 0.33745965 0.73100001
-0.71754003 0.33745965 0.73100001
-0.7152549 0.33745965 0.73100001
-0.71296984 0.33745965 0.73100001
-0.7126292 0.33838296 0.73300004
-0.71033788 0.33838296 0.73300004
-0.7080465 0.33838296 0.73300004
-0.70671797 0.33884457 0.73400003
-0.70442355 0.33884457 0.73400003
-0.70308566 0.33930621 0.73500001
-0.70174158 0.33976787 0.73600006
-0.69944084 0.33976787 0.73600006
-0.69808733 0.34022951 0.73700005
-0.6957835 0.34022951 0.73700005
-0.69442058 0.34069115 0.73800004
-0.69211364 0.34069115 0.73800004
-0.68980664 0.34069115 0.73800004
-0.6874997 0.34069115 0.73800004
-0.68519276 0.34069115 0.73800004
-0.68381107 0.34115279 0.73900002
-0.68150097 0.34115279 0.73900002
-0.67919093 0.34115279 0.73900002
-0.67596489 0.34069115 0.73800004
-0.67365789 0.34069115 0.73800004
-0.67135096 0.34069115 0.73800004
-0.66904402 0.34069115 0.73800004
-0.66673702 0.34069115 0.73800004
-0.66443008 0.34069115 0.73800004
-0.66212308 0.34069115 0.73800004
-0.65892208 0.34022951 0.73700005
-0.65661824 0.34022951 0.73700005
-0.6543144 0.34022951 0.73700005
-0.65289521 0.34069115 0.73800004
-0.65146977 0.34115279 0.73900002
-0.64915973 0.34115279 0.73900002
-0.64772493 0.34161443 0.74000001
-0.64715606 0.34253773 0.74200004
-0.6448366 0.34253773 0.74200004
-0.64338309 0.34299934 0.74300003
-0.64278609 0.34392264 0.74500006
-0.64045727 0.34392264 0.74500006
-0.6381284 0.34392264 0.74500006
-0.63665301 0.34438428 0.74600005
-0.63432103 0.34438428 0.74600005
-0.63198906 0.34438428 0.74600005
-0.62965709 0.34438428 0.74600005
-0.62732512 0.34438428 0.74600005
-0.62415534 0.34392264 0.74500006
-0.62182653 0.34392264 0.74500006
-0.61949766 0.34392264 0.74500006
-0.61716878 0.34392264 0.74500006
-0.61483991 0.34392264 0.74500006
-0.6125111 0.34392264 0.74500006
-0.61018223 0.34392264 0.74500006
-0.60785341 0.34392264 0.74500006
-0.60552454 0.34392264 0.74500006
-0.60481501 0.34484592 0.74700004
-0.60247988 0.34484592 0.74700004
-0.60094821 0.34530756 0.74800003
-0.59860998 0.34530756 0.74800003
-0.59627175 0.34530756 0.74800003
-0.59552163 0.34623086 0.75000006
-0.59317714 0.34623086 0.75000006
-0.59162045 0.3466925 0.75100005
-0.58927286 0.3466925 0.75100005
-0.58692521 0.3466925 0.75100005
-0.58457762 0.3466925 0.75100005
-0.58223003 0.3466925 0.75100005
-0.57988244 0.3466925 0.75100005
-0.57753485 0.3466925 0.75100005
-0.57442135 0.34623086 0.75000006
-0.5713141 0.3457692 0.74900001
-0.56897271 0.3457692 0.74900001
-0.56511831 0.34484592 0.74700004
-0.56202984 0.34438428 0.74600005
-0.55894762 0.34392264 0.74500006
-0.55661875 0.34392264 0.74500006
-0.55428994 0.34392264 0.74500006
-0.55196106 0.34392264 0.74500006
-0.54963225 0.34392264 0.74500006
-0.54730338 0.34392264 0.74500006
-0.54497457 0.34392264 0.74500006
-0.54264569 0.34392264 0.74500006
-0.54031688 0.34392264 0.74500006
-0.53798801 0.34392264 0.74500006
-0.53565913 0.34392264 0.74500006
-0.53333032 0.34392264 0.74500006
-0.53100145 0.34392264 0.74500006
-0.52867264 0.34392264 0.74500006
-0.52705026 0.34438428 0.74600005
-0.52471828 0.34438428 0.74600005
-0.52308655 0.34484592 0.74700004
-0.52075148 0.34484592 0.74700004
-0.5184164 0.34484592 0.74700004
-0.51608127 0.34484592 0.74700004
-0.51443386 0.34530756 0.74800003
-0.51209569 0.34530756 0.74800003
-0.50975746 0.34530756 0.74800003
-0.51284617 0.34900069 0.75600004
-0.51115817 0.34946233 0.75700003
-0.5087918 0.34946233 0.75700003
-0.50642544 0.34946233 0.75700003
-0.50472498 0.34992397 0.75800002
-0.50169277 0.34946233 0.75700003
-0.49932641 0.34946233 0.75700003
-0.49696004 0.34946233 0.75700003
-0.49459368 0.34946233 0.75700003
-0.49157709 0.34900069 0.75600004
-0.48921388 0.34900069 0.75600004
-0.48685065 0.34900069 0.75600004
-0.48320568 0.34807739 0.75400001
-0.4808487 0.34807739 0.75400001
-0.47849172 0.34807739 0.75400001
-0.47613475 0.34807739 0.75400001
-0.47377777 0.34807739 0.75400001
-0.47142079 0.34807739 0.75400001
-0.46906382 0.34807739 0.75400001
-0.46794474 0.34900069 0.75600004
-0.46619737 0.34946233 0.75700003
-0.46383101 0.34946233 0.75700003
-0.46146464 0.34946233 0.75700003
-0.45970476 0.34992397 0.75800002
-0.45733526 0.34992397 0.75800002
-0.45556605 0.35038564 0.75900006
-0.45379052 0.35084727 0.76000005
-0.45200875 0.35130888 0.76100004
-0.44962987 0.35130888 0.76100004
-0.44725102 0.35130888 0.76100004
-0.44545674 0.35177052 0.76200002
-0.44249329 0.35130888 0.76100004
-0.44011444 0.35130888 0.76100004
-0.4383108 0.35177052 0.76200002
-0.43592879 0.35177052 0.76200002
-0.43354681 0.35177052 0.76200002
-0.43173066 0.35223216 0.76300001
-0.42934555 0.35223216 0.76300001
-0.42696044 0.35223216 0.76300001
-0.42624471 0.3536171 0.76600003
-0.42385021 0.3536171 0.76600003
-0.42145568 0.3536171 0.76600003
-0.41960827 0.35407874 0.76700002
-0.41775459 0.35454038 0.76800001
-0.41535383 0.35454038 0.76800001
-0.41295311 0.35454038 0.76800001
-0.41108695 0.35500205 0.76900005
-0.40868309 0.35500205 0.76900005
-0.40627921 0.35500205 0.76900005
-0.40387535 0.35500205 0.76900005
-0.40199354 0.35546365 0.77000004
-0.39958656 0.35546365 0.77000004
-0.39717957 0.35546365 0.77000004
-0.39477256 0.35546365 0.77000004
-0.39236557 0.35546365 0.77000004
-0.38995859 0.35546365 0.77000004
-0.38755158 0.35546365 0.77000004
-0.38514459 0.35546365 0.77000004
-0.38224053 0.35500205 0.76900005
-0.37983665 0.35500205 0.76900005
-0.37743279 0.35500205 0.76900005
-0.37454122 0.35454038 0.76800001
-0.37165591 0.35407874 0.76700002
-0.36925831 0.35407874 0.76700002
-0.36638239 0.3536171 0.76600003
-0.36351272 0.35315546 0.76500005
-0.36112136 0.35315546 0.76500005
-0.35872999 0.35315546 0.76500005
-0.35633862 0.35315546 0.76500005
-0.35394725 0.35315546 0.76500005
-0.35063675 0.35223216 0.76300001
-0.34779525 0.35177052 0.76200002
-0.34541324 0.35177052 0.76200002
-0.34258109 0.35130888 0.76100004
-0.34020224 0.35130888 0.76100004
-0.33782336 0.35130888 0.76100004
-0.33544451 0.35130888 0.76100004
-0.33306566 0.35130888 0.76100004
-0.33068681 0.35130888 0.76100004
-0.32830793 0.35130888 0.76100004
-0.32550076 0.35084727 0.76000005
-0.32312503 0.35084727 0.76000005
-0.32074931 0.35084727 0.76000005
-0.31837356 0.35084727 0.76000005
-0.31599784 0.35084727 0.76000005
-0.31403476 0.35130888 0.76100004
-0.31165588 0.35130888 0.76100004
-0.30927703 0.35130888 0.76100004
-0.30730146 0.35177052 0.76200002
-0.30531961 0.35223216 0.76300001
-0.3029345 0.35223216 0.76300001
-0.30054936 0.35223216 0.76300001
-0.29894584 0.35315546 0.76500005
-0.29655448 0.35315546 0.76500005
-0.29454762 0.3536171 0.76600003
-0.29291594 0.35454038 0.76800001
-0.29051518 0.35454038 0.76800001
-0.28848961 0.35500205 0.76900005
-0.28608575 0.35500205 0.76900005
-0.28368187 0.35500205 0.76900005
-0.28091222 0.35454038 0.76800001
-0.27851146 0.35454038 0.76800001
-0.27611071 0.35454038 0.76800001
-0.27335358 0.35407874 0.76700002
-0.2706027 0.3536171 0.76600003
-0.26820821 0.3536171 0.76600003
-0.26581374 0.3536171 0.76600003
-0.26307535 0.35315546 0.76500005
-0.26068398 0.35315546 0.76500005
-0.25829262 0.35315546 0.76500005
-0.25590125 0.35315546 0.76500005
-0.25384128 0.3536171 0.76600003
-0.25144678 0.3536171 0.76600003
-0.24970256 0.35454038 0.76800001
-0.24794582 0.35546365 0.77000004
-0.24617657 0.35638693 0.77200001
-0.24376333 0.35638693 0.77200001
-0.24166273 0.3568486 0.77300006
-0.23955587 0.35731024 0.77400005
-0.23713636 0.35731024 0.77400005
-0.23502012 0.35777187 0.77500004
-0.23469839 0.36100337 0.78200006
-0.23225388 0.36100337 0.78200006
-0.22980937 0.36100337 0.78200006
-0.2276556 0.36146501 0.78300005
-0.22520795 0.36146501 0.78300005
-0.22247583 0.36100337 0.78200006
-0.22003132 0.36100337 0.78200006
-0.21758682 0.36100337 0.78200006
-0.21514231 0.36100337 0.78200006
-0.21296979 0.36146501 0.78300005
-0.21052216 0.36146501 0.78300005
-0.20807454 0.36146501 0.78300005
-0.2056269 0.36146501 0.78300005
-0.20369823 0.36238828 0.78500003
-0.20124435 0.36238828 0.78500003
-0.19879045 0.36238828 0.78500003
-0.19583635 0.36146501 0.78300005
-0.19338873 0.36146501 0.78300005
-0.1909411 0.36146501 0.78300005
-0.18825273 0.36100337 0.78200006
-0.18580823 0.36100337 0.78200006
-0.18336372 0.36100337 0.78200006
-0.18068784 0.3605417 0.78100002
-0.17824645 0.3605417 0.78100002
-0.17580508 0.3605417 0.78100002
-0.17314173 0.36008006 0.78000003
-0.17070347 0.36008006 0.78000003
-0.1680495 0.35961843 0.77900004
-0.16561437 0.35961843 0.77900004
-0.16317923 0.35961843 0.77900004
-0.1603314 0.35869515 0.77700001
-0.15790252 0.35869515 0.77700001
-0.15547365 0.35869515 0.77700001
-0.15343872 0.35961843 0.77900004
-0.15100358 0.35961843 0.77900004
-0.14856845 0.35961843 0.77900004
-0.14632092 0.36008006 0.78000003
-0.14388266 0.36008006 0.78000003
-0.14144441 0.36008006 0.78000003
-0.13900615 0.36008006 0.78000003
-0.13656789 0.36008006 0.78000003
-0.13447356 0.36100337 0.78200006
-0.13253556 0.36238828 0.78500003
-0.1304131 0.36331159 0.78700006
-0.12795296 0.36331159 0.78700006
-0.12565227 0.3637732 0.78800005
-0.12381434 0.36561978 0.79200006
-0.12133858 0.36561978 0.79200006
-0.11901288 0.36608142 0.79300004
-0.11668095 0.36654305 0.79400003
-0.11419893 0.36654305 0.79400003
-0.11199831 0.36746636 0.79600006
-0.10951004 0.36746636 0.79600006
-0.10702177 0.36746636 0.79600006
-0.1045335 0.36746636 0.79600006
-0.10217343 0.36792797 0.79700005
-0.099682026 0.36792797 0.79700005
-0.097190633 0.36792797 0.79700005
-0.094699234 0.36792797 0.79700005
-0.092207842 0.36792797 0.79700005
-0.089716442 0.36792797 0.79700005
-0.087334484 0.36838961 0.79800004
-0.084839962 0.36838961 0.79800004
-0.082345441 0.36838961 0.79800004
-0.080151111 0.36977455 0.80100006
-0.077647209 0.36977455 0.80100006
-0.075330928 0.37069783 0.80300003
-0.072820775 0.37069783 0.80300003
-0.07031063 0.37069783 0.80300003
-0.06780047 0.37069783 0.80300003
-0.065290317 0.37069783 0.80300003
-0.062780172 0.37069783 0.80300003
-0.060345069 0.37115946 0.80400002
-0.057831794 0.37115946 0.80400002
-0.055318508 0.37115946 0.80400002
-0.052805234 0.37115946 0.80400002
-0.050166853 0.37023619 0.80200005
-0.0476004 0.36977455 0.80100006
-0.044983897 0.36885124 0.79900002
-0.042486247 0.36885124 0.79900002
-0.0399886 0.36885124 0.79900002
-0.037490953 0.36885124 0.79900002
-0.034993302 0.36885124 0.79900002
-0.032495651 0.36885124 0.79900002
-0.029998006 0.36885124 0.79900002
-0.027500356 0.36885124 0.79900002
-0.025002707 0.36885124 0.79900002
-0.022505058 0.36885124 0.79900002
-0.020007411 0.36885124 0.79900002
-0.01750976 0.36885124 0.79900002
-0.014993325 0.36838961 0.79800004
-0.012498801 0.36838961 0.79800004
-0.010004279 0.36838961 0.79800004
-0.0075097559 0.36838961 0.79800004
-0.0050152335 0.36838961 0.79800004
-0.0025207105 0.36838961 0.79800004
-2.6187618e-05 0.36838961 0.79800004
0.0024652421 0.36792797 0.79700005
0.0049566389 0.36792797 0.79700005
0.0074480358 0.36792797 0.79700005
0.0099269617 0.36746636 0.79600006
0.012415233 0.36746636 0.79600006
0.014903503 0.36746636 0.79600006
0.017391775 0.36746636 0.79600006
0.01990502 0.36792797 0.79700005
0.022396417 0.36792797 0.79700005
0.024887813 0.36792797 0.79700005
0.027379211 0.36792797 0.79700005
0.029870609 0.36792797 0.79700005
0.032362003 0.36792797 0.79700005
0.03489713 0.36838961 0.79800004
0.037391655 0.36838961 0.79800004
0.039886177 0.36838961 0.79800004
0.042380698 0.36838961 0.79800004
0.044931456 0.36885124 0.79900002
0.047429107 0.36885124 0.79900002
0.05005173 0.36977455 0.80100006
0.052555632 0.36977455 0.80100006
0.05505953 0.36977455 0.80100006
0.057563432 0.36977455 0.80100006
0.06014232 0.37023619 0.80200005
0.063118041 0.37300602 0.80800003
0.065562591 0.37254438 0.80700004
0.068000875 0.37208274 0.80600005
0.070520408 0.37208274 0.80600005
0.073039941 0.37208274 0.80600005
0.075559467 0.37208274 0.80600005
0.078079 0.37208274 0.80600005
0.080598526 0.37208274 0.80600005
0.083118059 0.37208274 0.80600005
0.085637592 0.37208274 0.80600005
0.088157117 0.37208274 0.80600005
0.09067665 0.37208274 0.80600005
0.093311809 0.37254438 0.80700004
0.095834464 0.37254438 0.80700004
0.098357119 0.37254438 0.80700004
0.10100479 0.37300602 0.80800003
0.10353056 0.37300602 0.80800003
0.10605635 0.37300602 0.80800003
0.1088509 0.37392932 0.81000006
0.11152045 0.37439096 0.81100005
0.1140556 0.37439096 0.81100005
0.11673453 0.3748526 0.81200004
0.11927281 0.3748526 0.81200004
0.1219611 0.37531424 0.81300002
0.12450252 0.37531424 0.81300002
0.12735647 0.37623751 0.81500006
0.12990414 0.37623751 0.81500006
0.13212676 0.37531424 0.81300002
0.13466817 0.37531424 0.81300002
0.13754712 0.37623751 0.81500006
0.139751 0.37531424 0.81300002
0.14229241 0.37531424 0.81300002
0.14483382 0.37531424 0.81300002
0.14737523 0.37531424 0.81300002
0.14991663 0.37531424 0.81300002
0.15245806 0.37531424 0.81300002
0.15499948 0.37531424 0.81300002
0.15734711 0.3748526 0.81200004
0.15988539 0.3748526 0.81200004
0.16242367 0.3748526 0.81200004
0.16496196 0.3748526 0.81200004
0.16750026 0.3748526 0.81200004
0.17003854 0.3748526 0.81200004
0.17257683 0.3748526 0.81200004
0.17511511 0.3748526 0.81200004
0.17765339 0.3748526 0.81200004
0.17974788 0.37392932 0.81000006
0.18182983 0.37300602 0.80800003
0.1843556 0.37300602 0.80800003
0.18688138 0.37300602 0.80800003
0.18940717 0.37300602 0.80800003
0.19169541 0.37254438 0.80700004
0.19421807 0.37254438 0.80700004
0.19674073 0.37254438 0.80700004
0.19926338 0.37254438 0.80700004
0.20178604 0.37254438 0.80700004
0.20430869 0.37254438 0.80700004
0.20683135 0.37254438 0.80700004
0.20961343 0.37300602 0.80800003
0.2121392 0.37300602 0.80800003
0.21519636 0.37392932 0.81000006
0.21799719 0.37439096 0.81100005
0.22053236 0.37439096 0.81100005
0.22361761 0.37531424 0.81300002
0.22671539 0.37623751 0.81500006
0.22926304 0.37623751 0.81500006
0.2318107 0.37623751 0.81500006
0.23493348 0.37716079 0.81700003
0.23748739 0.37716079 0.81700003
0.2400413 0.37716079 0.81700003
0.2431891 0.37808409 0.81900007
0.24604934 0.37854573 0.82000005
0.24861263 0.37854573 0.82000005
0.25148222 0.37900737 0.82100004
0.25404865 0.37900737 0.82100004
0.25661507 0.37900737 0.82100004
0.2591815 0.37900737 0.82100004
0.26238552 0.37993065 0.82300001
0.26528016 0.38039228 0.82400006
0.26785594 0.38039228 0.82400006
0.27043176 0.38039228 0.82400006
0.27333885 0.38085392 0.82500005
0.27591777 0.38085392 0.82500005
0.27849671 0.38085392 0.82500005
0.28107566 0.38085392 0.82500005
0.28365457 0.38085392 0.82500005
0.28692737 0.3817772 0.82700002
0.28986263 0.38223886 0.82800007
0.29245093 0.38223886 0.82800007
0.29503924 0.38223886 0.82800007
0.29762754 0.38223886 0.82800007
0.30057842 0.3827005 0.82900006
0.30316985 0.3827005 0.82900006
0.30576128 0.3827005 0.82900006
0.30835271 0.3827005 0.82900006
0.31094414 0.3827005 0.82900006
0.31315738 0.38223886 0.82800007
0.31574568 0.38223886 0.82800007
0.3179495 0.3817772 0.82700002
0.32053468 0.3817772 0.82700002
0.32311985 0.3817772 0.82700002
0.32491735 0.38085392 0.82500005
0.32749626 0.38085392 0.82500005
0.33007517 0.38085392 0.82500005
0.33265412 0.38085392 0.82500005
0.33523306 0.38085392 0.82500005
0.33781198 0.38085392 0.82500005
0.34039089 0.38085392 0.82500005
0.34296981 0.38085392 0.82500005
0.34554875 0.38085392 0.82500005
0.34897161 0.3817772 0.82700002
0.35155678 0.3817772 0.82700002
0.35414195 0.3817772 0.82700002
0.35715848 0.38223886 0.82800007
0.35974678 0.38223886 0.82800007
0.36233509 0.38223886 0.82800007
0.36492342 0.38223886 0.82800007
0.36751172 0.38223886 0.82800007
0.36965302 0.3817772 0.82700002
0.37223819 0.3817772 0.82700002
0.37527663 0.38223886 0.82800007
0.37786493 0.38223886 0.82800007
0.38412908 0.38593197 0.83600003
0.38674238 0.38593197 0.83600003
0.38935569 0.38593197 0.83600003
0.391969 0.38593197 0.83600003
0.3945823 0.38593197 0.83600003
0.39719564 0.38593197 0.83600003
0.39980894 0.38593197 0.83600003
0.40242225 0.38593197 0.83600003
0.40503556 0.38593197 0.83600003
0.40764886 0.38593197 0.83600003
0.41026217 0.38593197 0.83600003
0.41336933 0.38639361 0.83700001
0.41548878 0.38593197 0.83600003
0.41810212 0.38593197 0.83600003
0.42121866 0.38639361 0.83700001
0.4238351 0.38639361 0.83700001
0.42645153 0.38639361 0.83700001
0.42906797 0.38639361 0.83700001
0.4316844 0.38639361 0.83700001
0.43533862 0.38731691 0.83900005
0.43796128 0.38731691 0.83900005
0.44110909 0.38777855 0.84000003
0.44373491 0.38777855 0.84000003
0.44742349 0.38870183 0.84200007
0.45005557 0.38870183 0.84200007
0.45268762 0.38870183 0.84200007
0.4553197 0.38870183 0.84200007
0.45795175 0.38870183 0.84200007
0.46058381 0.38870183 0.84200007
0.46376601 0.38916346 0.84300005
0.46640119 0.38916346 0.84300005
0.4690364 0.38916346 0.84300005
0.47111207 0.38870183 0.84200007
0.47374418 0.38870183 0.84200007
0.47637624 0.38870183 0.84200007
0.47900832 0.38870183 0.84200007
0.48164037 0.38870183 0.84200007
0.48427242 0.38870183 0.84200007
0.4869045 0.38870183 0.84200007
0.49011794 0.38916346 0.84300005
0.49275315 0.38916346 0.84300005
0.49538833 0.38916346 0.84300005
0.49743274 0.38870183 0.84200007
0.50006479 0.38870183 0.84200007
0.50269687 0.38870183 0.84200007
0.50532895 0.38870183 0.84200007
0.50796098 0.38870183 0.84200007
0.51059306 0.38870183 0.84200007
0.51322514 0.38870183 0.84200007
0.51585722 0.38870183 0.84200007
0.51848924 0.38870183 0.84200007
0.52112132 0.38870183 0.84200007
0.5237534 0.38870183 0.84200007
0.52638543 0.38870183 0.84200007
0.52901751 0.38870183 0.84200007
0.53164965 0.38870183 0.84200007
0.53428167 0.38870183 0.84200007
0.53691375 0.38870183 0.84200007
0.53954583 0.38870183 0.84200007
0.54217786 0.38870183 0.84200007
0.54480994 0.38870183 0.84200007
0.54809219 0.38916346 0.84300005
0.55072737 0.38916346 0.84300005
0.55336255 0.38916346 0.84300005
0.55599773 0.38916346 0.84300005
0.55863291 0.38916346 0.84300005
0.56126809 0.38916346 0.84300005
0.56390327 0.38916346 0.84300005
0.56653851 0.38916346 0.84300005
0.56917369 0.38916346 0.84300005
0.57180887 0.38916346 0.84300005
0.57444406 0.38916346 0.84300005
0.57707924 0.38916346 0.84300005
0.57971442 0.38916346 0.84300005
0.5823496 0.38916346 0.84300005
0.58498484 0.38916346 0.84300005
0.58831704 0.3896251 0.84400004
0.59095544 0.3896251 0.84400004
0.59359372 0.3896251 0.84400004
0.59764493 0.39054838 0.84600002
0.60028946 0.39054838 0.84600002
0.60293406 0.39054838 0.84600002
0.6055786 0.39054838 0.84600002
0.6067853 0.3896251 0.84400004
0.60942364 0.3896251 0.84400004
0.61206192 0.3896251 0.84400004
0.61470026 0.3896251 0.84400004
0.61880141 0.39054838 0.84600002
0.62218058 0.39101005 0.84700006
0.62482828 0.39101005 0.84700006
0.62747598 0.39101005 0.84700006
0.63012367 0.39101005 0.84700006
0.63277137 0.39101005 0.84700006
0.63541907 0.39101005 0.84700006
0.6395734 0.39193332 0.84900004
0.64298379 0.39239496 0.85000002
0.64564085 0.39239496 0.85000002
0.64906061 0.3928566 0.85100001
0.65401834 0.39424151 0.85400003
0.65668792 0.39424151 0.85400003
0.65935755 0.39424151 0.85400003
0.66202712 0.39424151 0.85400003
0.66469669 0.39424151 0.85400003
0.66736627 0.39424151 0.85400003
0.67003584 0.39424151 0.85400003
0.67270541 0.39424151 0.85400003
0.67537498 0.39424151 0.85400003
0.67804456 0.39424151 0.85400003
0.68071413 0.39424151 0.85400003
0.6833837 0.39424151 0.85400003
0.68605328 0.39424151 0.85400003
0.68872285 0.39424151 0.85400003
0.69139242 0.39424151 0.85400003
0.69406199 0.39424151 0.85400003
0.69673157 0.39424151 0.85400003
0.69940114 0.39424151 0.85400003
0.70207071 0.39424151 0.85400003
0.70474029 0.39424151 0.85400003
0.70906657 0.39516482 0.85600007
0.7117424 0.39516482 0.85600007
0.71441823 0.39516482 0.85600007
0.72547132 0.39978123 0.86600006
0.72817844 0.39978123 0.86600006
0.73088557 0.39978123 0.86600006
0.73443973 0.40024287 0.86700004
0.73714995 0.40024287 0.86700004
0.73986018 0.40024287 0.86700004
0.74257034 0.40024287 0.86700004
0.74528056 0.40024287 0.86700004
0.74712807 0.39978123 0.86600006
0.74983513 0.39978123 0.86600006
0.75254226 0.39978123 0.86600006
0.75524932 0.39978123 0.86600006
0.75795645 0.39978123 0.86600006
0.76066351 0.39978123 0.86600006
0.76337057 0.39978123 0.86600006
0.76696229 0.40024287 0.86700004
0.77144796 0.40116614 0.86900002
0.77416444 0.40116614 0.86900002
0.77777493 0.40162778 0.87000006
0.78049451 0.40162778 0.87000006
0.78321409 0.40162778 0.87000006
0.78774041 0.40255105 0.87200004
0.79046625 0.40255105 0.87200004
0.79592103 0.403936 0.87500006
0.79865628 0.403936 0.87500006
0.80230737 0.40439764 0.87600005
0.80504566 0.40439764 0.87600005
0.80778402 0.40439764 0.87600005
0.81052238 0.40439764 0.87600005
0.81326073 0.40439764 0.87600005
0.81599909 0.40439764 0.87600005
0.81873745 0.40439764 0.87600005
0.82147574 0.40439764 0.87600005
0.8242141 0.40439764 0.87600005
0.82884043 0.40532091 0.87800002
0.83253223 0.40578255 0.87900007
0.83527994 0.40578255 0.87900007
0.83802766 0.40578255 0.87900007
0.84077537 0.40578255 0.87900007
0.84352314 0.40578255 0.87900007
0.84627086 0.40578255 0.87900007
0.8509503 0.40670583 0.88100004
0.85370433 0.40670583 0.88100004
0.85645831 0.40670583 0.88100004
0.85921228 0.40670583 0.88100004
0.86196631 0.40670583 0.88100004
0.86275727 0.40578255 0.87900007
0.86550498 0.40578255 0.87900007
0.86825269 0.40578255 0.87900007
0.87100041 0.40578255 0.87900007
0.87374812 0.40578255 0.87900007
0.87549865 0.40532091 0.87800002
0.87824327 0.40532091 0.87800002
0.88098782 0.40532091 0.87800002
-0.71872765 0.33602661 0.72300005
-0.71646756 0.33602661 0.72300005
-0.71420753 0.33602661 0.72300005
-0.71293211 0.33649138 0.72400004
-0.71066892 0.33649138 0.72400004
-0.70840573 0.33649138 0.72400004
-0.70711786 0.33695614 0.72500002
-0.70485151 0.33695614 0.72500002
-0.70355427 0.33742091 0.72600001
-0.70418268 0.33881521 0.72900003
-0.70190382 0.33881521 0.72900003
-0.69962502 0.33881521 0.72900003
-0.69830275 0.33927998 0.73000002
-0.69697422 0.33974472 0.73100001
-0.69468915 0.33974472 0.73100001
-0.69240409 0.33974472 0.73100001
-0.69106311 0.34020951 0.73200005
-0.68877488 0.34020951 0.73200005
-0.68648672 0.34020951 0.73200005
-0.6841985 0.34020951 0.73200005
-0.68191028 0.34020951 0.73200005
-0.67962205 0.34020951 0.73200005
-0.67733389 0.34020951 0.73200005
-0.67504567 0.34020951 0.73200005
-0.67275745 0.34020951 0.73200005
-0.67046922 0.34020951 0.73200005
-0.66818106 0.34020951 0.73200005
-0.66589284 0.34020951 0.73200005
-0.66360462 0.34020951 0.73200005
-0.66131645 0.34020951 0.73200005
-0.65902823 0.34020951 0.73200005
-0.65673995 0.34020951 0.73200005
-0.65445179 0.34020951 0.73200005
-0.65216357 0.34020951 0.73200005
-0.64987534 0.34020951 0.73200005
-0.64847183 0.34067428 0.73300004
-0.64618045 0.34067428 0.73300004
-0.64388913 0.34067428 0.73300004
-0.6424731 0.34113905 0.73400003
-0.64105082 0.34160382 0.73500001
-0.63875324 0.34160382 0.73500001
-0.63732159 0.34206858 0.73600006
-0.63588369 0.34253335 0.73700005
-0.63357985 0.34253335 0.73700005
-0.63127601 0.34253335 0.73700005
-0.62897217 0.34253335 0.73700005
-0.62666833 0.34253335 0.73700005
-0.6243645 0.34253335 0.73700005
-0.62206066 0.34253335 0.73700005
-0.61975682 0.34253335 0.73700005
-0.61745298 0.34253335 0.73700005
-0.61514914 0.34253335 0.73700005
-0.6128453 0.34253335 0.73700005
-0.60971308 0.34206858 0.73600006
-0.60741234 0.34206858 0.73600006
-0.60593379 0.34253335 0.73700005
-0.60362995 0.34253335 0.73700005
-0.60132611 0.34253335 0.73700005
-0.59902227 0.34253335 0.73700005
-0.59833771 0.34346288 0.73900002
-0.59602761 0.34346288 0.73900002
-0.59452093 0.34392762 0.74000001
-0.59300804 0.34439242 0.74100006
-0.59069169 0.34439242 0.74100006
-0.59552163 0.34857532 0.75000006
-0.59317714 0.34857532 0.75000006
-0.59162045 0.34904009 0.75100005
-0.58927286 0.34904009 0.75100005
-0.58692521 0.34904009 0.75100005
-0.58457762 0.34904009 0.75100005
-0.58223003 0.34904009 0.75100005
-0.57988244 0.34904009 0.75100005
-0.57753485 0.34904009 0.75100005
-0.57442135 0.34857532 0.75000006
-0.5713141 0.34811053 0.74900001
-0.56897271 0.34811053 0.74900001
-0.56511831 0.34718102 0.74700004
-0.56202984 0.34671625 0.74600005
-0.55894762 0.34625149 0.74500006
-0.55661875 0.34625149 0.74500006
-0.55428994 0.34625149 0.74500006
-0.55196106 0.34625149 0.74500006
-0.54963225 0.34625149 0.74500006
-0.54730338 0.34625149 0.74500006
-0.54497457 0.34625149 0.74500006
-0.54264569 0.34625149 0.74500006
-0.54031688 0.34625149 0.74500006
-0.53798801 0.34625149 0.74500006
-0.53565913 0.34625149 0.74500006
-0.53333032 0.34625149 0.74500006
-0.53100145 0.34625149 0.74500006
-0.52867264 0.34625149 0.74500006
-0.52705026 0.34671625 0.74600005
-0.52471828 0.34671625 0.74600005
-0.52308655 0.34718102 0.74700004
-0.52075148 0.34718102 0.74700004
-0.5184164 0.34718102 0.74700004
-0.51608127 0.34718102 0.74700004
-0.51443386 0.34764579 0.74800003
-0.51209569 0.34764579 0.74800003
-0.50975746 0.34764579 0.74800003
-0.50809759 0.34811053 0.74900001
-0.5057562 0.34811053 0.74900001
-0.50341487 0.34811053 0.74900001
-0.50241154 0.34904009 0.75100005
-0.50006396 0.34904009 0.75100005
-0.49705359 0.34857532 0.75000006
-0.49470913 0.34857532 0.75000006
-0.49236465 0.34857532 0.75000006
-0.49002019 0.34857532 0.75000006
-0.48702544 0.34811053 0.74900001
-0.48468408 0.34811053 0.74900001
-0.48169878 0.34764579 0.74800003
-0.47936055 0.34764579 0.74800003
-0.47766006 0.34811053 0.74900001
-0.47468409 0.34764579 0.74800003
-0.47234589 0.34764579 0.74800003
-0.47000766 0.34764579 0.74800003
-0.46766943 0.34764579 0.74800003
-0.46533123 0.34764579 0.74800003
-0.4636119 0.34811053 0.74900001
-0.46127057 0.34811053 0.74900001
-0.45892921 0.34811053 0.74900001
-0.45658788 0.34811053 0.74900001
-0.45485303 0.34857532 0.75000006
-0.45250854 0.34857532 0.75000006
-0.45076427 0.34904009 0.75100005
-0.44901377 0.34950486 0.75200003
-0.44666305 0.34950486 0.75200003
-0.4443123 0.34950486 0.75200003
-0.44196159 0.34950486 0.75200003
-0.43961087 0.34950486 0.75200003
-0.43726012 0.34950486 0.75200003
-0.4349094 0.34950486 0.75200003
-0.4331339 0.34996963 0.75300002
-0.43078002 0.34996963 0.75300002
-0.42842618 0.34996963 0.75300002
-0.42776984 0.35136393 0.75600004
-0.42540661 0.35136393 0.75600004
-0.42304337 0.35136393 0.75600004
-0.4212366 0.35182869 0.75700003
-0.41942355 0.35229343 0.75800002
-0.41705403 0.35229343 0.75800002
-0.41523165 0.35275823 0.75900006
-0.413403 0.353223 0.76000005
-0.41102725 0.353223 0.76000005
-0.40918922 0.35368776 0.76100004
-0.40734494 0.35415253 0.76200002
-0.40496293 0.35415253 0.76200002
-0.40258095 0.35415253 0.76200002
-0.40072414 0.35461727 0.76300001
-0.39833903 0.35461727 0.76300001
-0.39595392 0.35461727 0.76300001
-0.39356881 0.35461727 0.76300001
-0.3911837 0.35461727 0.76300001
-0.38879859 0.35461727 0.76300001
-0.38641348 0.35461727 0.76300001
-0.38402838 0.35461727 0.76300001
-0.38164327 0.35461727 0.76300001
-0.37876108 0.35415253 0.76200002
-0.37637907 0.35415253 0.76200002
-0.37399709 0.35415253 0.76200002
-0.37112743 0.35368776 0.76100004
-0.36826402 0.353223 0.76000005
-0.3658883 0.353223 0.76000005
-0.36303425 0.35275823 0.75900006
-0.36018646 0.35229343 0.75800002
-0.35781696 0.35229343 0.75800002
-0.35544747 0.35229343 0.75800002
-0.35307801 0.35229343 0.75800002
-0.35070848 0.35229343 0.75800002
-0.34787947 0.35182869 0.75700003
-0.34505668 0.35136393 0.75600004
-0.34269348 0.35136393 0.75600004
-0.34033024 0.35136393 0.75600004
-0.33796701 0.35136393 0.75600004
-0.33560377 0.35136393 0.75600004
-0.33324054 0.35136393 0.75600004
-0.3308773 0.35136393 0.75600004
-0.32764497 0.35043436 0.75400001
-0.325288 0.35043436 0.75400001
-0.32250273 0.34996963 0.75300002
-0.32014889 0.34996963 0.75300002
-0.31779501 0.34996963 0.75300002
-0.31544116 0.34996963 0.75300002
-0.31599784 0.353223 0.76000005
-0.31403476 0.35368776 0.76100004
-0.31165588 0.35368776 0.76100004
-0.30927703 0.35368776 0.76100004
-0.30730146 0.35415253 0.76200002
-0.30531961 0.35461727 0.76300001
-0.3029345 0.35461727 0.76300001
-0.30054936 0.35461727 0.76300001
-0.29894584 0.35554683 0.76500005
-0.29655448 0.35554683 0.76500005
-0.29454762 0.3560116 0.76600003
-0.29291594 0.3569411 0.76800001
-0.29051518 0.3569411 0.76800001
-0.28848961 0.3574059 0.76900005
-0.28608575 0.3574059 0.76900005
-0.28368187 0.3574059 0.76900005
-0.28091222 0.3569411 0.76800001
-0.27851146 0.3569411 0.76800001
-0.27611071 0.3569411 0.76800001
-0.27335358 0.35647634 0.76700002
-0.2706027 0.3560116 0.76600003
-0.26820821 0.3560116 0.76600003
-0.26581374 0.3560116 0.76600003
-0.26307535 0.35554683 0.76500005
-0.26068398 0.35554683 0.76500005
-0.25829262 0.35554683 0.76500005
-0.25590125 0.35554683 0.76500005
-0.25384128 0.3560116 0.76600003
-0.25144678 0.3560116 0.76600003
-0.24970256 0.3569411 0.76800001
-0.24794582 0.35787067 0.77000004
-0.24617657 0.35880017 0.77200001
-0.24376333 0.35880017 0.77200001
-0.24166273 0.35926497 0.77300006
-0.23955587 0.35972974 0.77400005
-0.23713636 0.35972974 0.77400005
-0.23502012 0.3601945 0.77500004
-0.23259749 0.3601945 0.77500004
-0.23017487 0.3601945 0.77500004
-0.2280461 0.36065924 0.77600002
-0.22562036 0.36065924 0.77600002
-0.22319458 0.36065924 0.77600002
-0.22048435 0.3601945 0.77500004
-0.21806173 0.3601945 0.77500004
-0.2156391 0.3601945 0.77500004
-0.21321648 0.3601945 0.77500004
-0.21133783 0.36112401 0.77700001
-0.20890896 0.36112401 0.77700001
-0.20648009 0.36112401 0.77700001
-0.20405121 0.36112401 0.77700001
-0.20214131 0.36205357 0.77900004
-0.19970618 0.36205357 0.77900004
-0.19752426 0.36251834 0.78000003
-0.19483592 0.36205357 0.77900004
-0.1924008 0.36205357 0.77900004
-0.18947794 0.36112401 0.77700001
-0.18680833 0.36065924 0.77600002
-0.18438257 0.36065924 0.77600002
-0.18195683 0.36065924 0.77600002
-0.17929973 0.3601945 0.77500004
-0.1768771 0.3601945 0.77500004
-0.17422937 0.35972974 0.77400005
-0.1715879 0.35926497 0.77300006
-0.16917153 0.35926497 0.77300006
-0.16653942 0.35880017 0.77200001
-0.16370098 0.35787067 0.77000004
-0.16129398 0.35787067 0.77000004
-0.15888698 0.35787067 0.77000004
-0.15647998 0.35787067 0.77000004
-0.154073 0.35787067 0.77000004
-0.15205993 0.35880017 0.77200001
-0.14964668 0.35880017 0.77200001
-0.14723343 0.35880017 0.77200001
-0.14500779 0.35926497 0.77300006
-0.14259142 0.35926497 0.77300006
-0.14017504 0.35926497 0.77300006
-0.13775867 0.35926497 0.77300006
-0.13534229 0.35926497 0.77300006
-0.13326983 0.3601945 0.77500004
-0.13118488 0.36112401 0.77700001
-0.12925313 0.36251834 0.78000003
-0.12681487 0.36251834 0.78000003
-0.12469553 0.36344787 0.78200006
-0.12240736 0.36391264 0.78300005
-0.11995973 0.36391264 0.78300005
-0.11796233 0.36530691 0.78600001
-0.11565228 0.36577171 0.78700006
-0.11319214 0.36577171 0.78700006
-0.110732 0.36577171 0.78700006
-0.10827186 0.36577171 0.78700006
-0.10581173 0.36577171 0.78700006
-0.10335159 0.36577171 0.78700006
-0.10101965 0.36623648 0.78800005
-0.098556377 0.36623648 0.78800005
-0.096093126 0.36623648 0.78800005
-0.093629859 0.36623648 0.78800005
-0.091166593 0.36623648 0.78800005
-0.088703334 0.36623648 0.78800005
-0.086568393 0.36763075 0.79100001
-0.084095754 0.36763075 0.79100001
-0.081623107 0.36763075 0.79100001
-0.079250537 0.36809555 0.79200006
-0.076968648 0.36902505 0.79400003
-0.074768059 0.37041938 0.79700005
-0.072276667 0.37041938 0.79700005
-0.069872826 0.37088415 0.79800004
-0.067378305 0.37088415 0.79800004
-0.064802475 0.37041938 0.79700005
-0.062311079 0.37041938 0.79700005
-0.05981968 0.37041938 0.79700005
-0.057328284 0.37041938 0.79700005
-0.054768082 0.36995462 0.79600006
-0.052279811 0.36995462 0.79600006
-0.049603883 0.36856031 0.79300004
-0.047065563 0.36809555 0.79200006
-0.044589799 0.36809555 0.79200006
-0.042060852 0.36763075 0.79100001
-0.039488118 0.36670125 0.78900003
-0.03702173 0.36670125 0.78900003
-0.034555338 0.36670125 0.78900003
-0.03208895 0.36670125 0.78900003
-0.029998006 0.37134889 0.79900002
-0.027500356 0.37134889 0.79900002
-0.025002707 0.37134889 0.79900002
-0.022505058 0.37134889 0.79900002
-0.020007411 0.37134889 0.79900002
-0.01750976 0.37134889 0.79900002
-0.014993325 0.37088415 0.79800004
-0.012498801 0.37088415 0.79800004
-0.010004279 0.37088415 0.79800004
-0.0075097559 0.37088415 0.79800004
-0.0050152335 0.37088415 0.79800004
-0.0025207105 0.37088415 0.79800004
-2.6187618e-05 0.37088415 0.79800004
0.0024652421 0.37041938 0.79700005
0.0049566389 0.37041938 0.79700005
0.0074480358 0.37041938 0.79700005
0.0099269617 0.36995462 0.79600006
0.012415233 0.36995462 0.79600006
0.014903503 0.36995462 0.79600006
0.017391775 0.36995462 0.79600006
0.01990502 0.37041938 0.79700005
0.022396417 0.37041938 0.79700005
0.024887813 0.37041938 0.79700005
0.027379211 0.37041938 0.79700005
0.029870609 0.37041938 0.79700005
0.032362003 0.37041938 0.79700005
0.03489713 0.37088415 0.79800004
0.037391655 0.37088415 0.79800004
0.039886177 0.37088415 0.79800004
0.042380698 0.37088415 0.79800004
0.044931456 0.37134889 0.79900002
0.047429107 0.37134889 0.79900002
0.05005173 0.37227845 0.80100006
0.052555632 0.37227845 0.80100006
0.05505953 0.37227845 0.80100006
0.057563432 0.37227845 0.80100006
0.060067333 0.37227845 0.80100006
0.062571228 0.37227845 0.80100006
0.065075137 0.37227845 0.80100006
0.067410298 0.37134889 0.79900002
0.069907948 0.37134889 0.79900002
0.072314978 0.37088415 0.79800004
0.074809492 0.37088415 0.79800004
0.077304021 0.37088415 0.79800004
0.079798542 0.37088415 0.79800004
0.082293063 0.37088415 0.79800004
0.084787592 0.37088415 0.79800004
0.087282114 0.37088415 0.79800004
0.089776628 0.37088415 0.79800004
0.092271157 0.37088415 0.79800004
0.094765678 0.37088415 0.79800004
0.097260199 0.37088415 0.79800004
0.099879727 0.37134889 0.79900002
0.10237738 0.37134889 0.79900002
0.10487502 0.37134889 0.79900002
0.10764144 0.37227845 0.80100006
0.11014535 0.37227845 0.80100006
0.11264925 0.37227845 0.80100006
0.11529691 0.37274322 0.80200005
0.11780393 0.37274322 0.80200005
0.12031096 0.37274322 0.80200005
0.12297113 0.37320796 0.80300003
0.12563755 0.37367272 0.80400002
0.12815082 0.37367272 0.80400002
0.1306641 0.37367272 0.80400002
0.13317737 0.37367272 0.80400002
0.13569066 0.37367272 0.80400002
0.13820393 0.37367272 0.80400002
0.14071722 0.37367272 0.80400002
0.1432305 0.37367272 0.80400002
0.14574377 0.37367272 0.80400002
0.14825705 0.37367272 0.80400002
0.15077034 0.37367272 0.80400002
0.15309297 0.37320796 0.80300003
0.15540934 0.37274322 0.80200005
0.15791637 0.37274322 0.80200005
0.16062342 0.37320796 0.80300003
0.16313356 0.37320796 0.80300003
0.16564372 0.37320796 0.80300003
0.16815388 0.37320796 0.80300003
0.17066403 0.37320796 0.80300003
0.17317417 0.37320796 0.80300003
0.17568433 0.37320796 0.80300003
0.17819449 0.37320796 0.80300003
0.1804796 0.37274322 0.80200005
0.18298663 0.37274322 0.80200005
0.18549366 0.37274322 0.80200005
0.18800068 0.37274322 0.80200005
0.19074525 0.37320796 0.80300003
0.19277407 0.37227845 0.80100006
0.19527797 0.37227845 0.80100006
0.19778188 0.37227845 0.80100006
0.20028578 0.37227845 0.80100006
0.20278968 0.37227845 0.80100006
0.20529357 0.37227845 0.80100006
0.20779747 0.37227845 0.80100006
0.21030137 0.37227845 0.80100006
0.21307096 0.37274322 0.80200005
0.21584678 0.37320796 0.80300003
0.21835694 0.37320796 0.80300003
0.22114213 0.37367272 0.80400002
