# .PCD v0.7 - Point Cloud Data file format
VERSION 0.7
FIELDS x y z
SIZE 4 4 4
TYPE F F F
COUNT 1 1 1
WIDTH 1436
HEIGHT 1
VIEWPOINT 0 0 0 1 0 0 0
POINTS 1436
DATA ascii
0.31109664 0.38107511 0.75400001
0.3130379 0.38056973 0.75300002
0.31539175 0.38056973 0.75300002
0.31647971 0.37905353 0.75000006
0.31839904 0.37854809 0.74900001
0.3207404 0.37854809 0.74900001
0.3226504 0.3780427 0.74800003
0.32455415 0.37753728 0.74700004
0.32688925 0.37753728 0.74700004
0.32922438 0.37753728 0.74700004
0.33111563 0.37703189 0.74600005
0.33344761 0.37703189 0.74600005
0.33532947 0.3765265 0.74500006
0.33765832 0.3765265 0.74500006
0.33998716 0.3765265 0.74500006
0.342316 0.3765265 0.74500006
0.34464484 0.3765265 0.74500006
0.34697369 0.3765265 0.74500006
0.3483648 0.37551567 0.74300003
0.35068738 0.37551567 0.74300003
0.35301 0.37551567 0.74300003
0.35628909 0.3765265 0.74500006
0.35861793 0.3765265 0.74500006
0.36143127 0.37703189 0.74600005
0.36376324 0.37703189 0.74600005
0.36609522 0.37703189 0.74600005
0.3694149 0.3780427 0.74800003
0.37175313 0.3780427 0.74800003
0.37409136 0.3780427 0.74800003
0.37642959 0.3780427 0.74800003
0.37876782 0.3780427 0.74800003
0.38161552 0.37854809 0.74900001
0.38395688 0.37854809 0.74900001
0.38629821 0.37854809 0.74900001
0.38863957 0.37854809 0.74900001
0.39098093 0.37854809 0.74900001
0.39332226 0.37854809 0.74900001
0.39566362 0.37854809 0.74900001
0.39800498 0.37854809 0.74900001
0.40034631 0.37854809 0.74900001
0.40268767 0.37854809 0.74900001
0.405029 0.37854809 0.74900001
0.40791428 0.37905353 0.75000006
0.41080576 0.37955892 0.75100005
0.41370347 0.38006431 0.75200003
0.41605422 0.38006431 0.75200003
0.41840494 0.38006431 0.75200003
0.42131516 0.38056973 0.75300002
0.42366907 0.38056973 0.75300002
0.42658868 0.38107511 0.75400001
0.43008345 0.38208595 0.75600004
0.43244669 0.38208595 0.75600004
0.43365961 0.38107511 0.75400001
0.43601659 0.38107511 0.75400001
0.43837357 0.38107511 0.75400001
0.44014603 0.38056973 0.75300002
0.44249988 0.38056973 0.75300002
0.44485372 0.38056973 0.75300002
0.4466137 0.38006431 0.75200003
0.44896442 0.38006431 0.75200003
0.45131513 0.38006431 0.75200003
0.45306259 0.37955892 0.75100005
0.45480379 0.37905353 0.75000006
0.45714828 0.37905353 0.75000006
0.45888007 0.37854809 0.74900001
0.46122143 0.37854809 0.74900001
0.46418169 0.37905353 0.75000006
0.46652618 0.37905353 0.75000006
0.4694958 0.37955892 0.75100005
0.47247168 0.38006431 0.75200003
0.47482246 0.38006431 0.75200003
0.47717318 0.38006431 0.75200003
0.48079923 0.38107511 0.75400001
0.48443779 0.38208595 0.75600004
0.48680103 0.38208595 0.75600004
0.4898113 0.38259134 0.75700003
0.4928278 0.38309672 0.75800002
0.4951973 0.38309672 0.75800002
0.49822322 0.38360217 0.75900006
0.50125539 0.38410756 0.76000005
0.50296843 0.38360217 0.75900006
0.50534105 0.38360217 0.75900006
0.50771368 0.38360217 0.75900006
0.51008624 0.38360217 0.75900006
0.51245886 0.38360217 0.75900006
0.51483148 0.38360217 0.75900006
0.51788551 0.38410756 0.76000005
0.52026123 0.38410756 0.76000005
0.52263695 0.38410756 0.76000005
0.52570349 0.38461295 0.76100004
0.52808237 0.38461295 0.76100004
0.53046125 0.38461295 0.76100004
0.53284013 0.38461295 0.76100004
0.53521901 0.38461295 0.76100004
0.54324937 0.3886562 0.76900005
0.54565322 0.3886562 0.76900005
0.54805708 0.3886562 0.76900005
0.55046093 0.3886562 0.76900005
0.55286485 0.3886562 0.76900005
0.5552687 0.3886562 0.76900005
0.55694735 0.38815078 0.76800001
0.55861974 0.38764536 0.76700002
0.56101739 0.38764536 0.76700002
0.56268042 0.38713998 0.76600003
0.56433725 0.38663459 0.76500005
0.56672859 0.38663459 0.76500005
0.56911999 0.38663459 0.76500005
0.57151133 0.38663459 0.76500005
0.57390267 0.38663459 0.76500005
0.57629406 0.38663459 0.76500005
0.5786854 0.38663459 0.76500005
0.5810768 0.38663459 0.76500005
0.58346814 0.38663459 0.76500005
0.58585954 0.38663459 0.76500005
0.58825094 0.38663459 0.76500005
0.59064227 0.38663459 0.76500005
0.59303367 0.38663459 0.76500005
0.59620333 0.38713998 0.76600003
0.59859782 0.38713998 0.76600003
0.60020775 0.38663459 0.76500005
0.60259908 0.38663459 0.76500005
0.60578132 0.38713998 0.76600003
0.60817581 0.38713998 0.76600003
0.61057025 0.38713998 0.76600003
0.61376494 0.38764536 0.76700002
0.6161626 0.38764536 0.76700002
0.61856019 0.38764536 0.76700002
0.6217674 0.38815078 0.76800001
0.62498093 0.3886562 0.76900005
0.62738478 0.3886562 0.76900005
0.62978864 0.3886562 0.76900005
0.63301456 0.38916162 0.77000004
0.63542157 0.38916162 0.77000004
0.63782859 0.38916162 0.77000004
0.64023554 0.38916162 0.77000004
0.64264256 0.38916162 0.77000004
0.64504957 0.38916162 0.77000004
0.64745659 0.38916162 0.77000004
0.6498636 0.38916162 0.77000004
0.65227056 0.38916162 0.77000004
0.65467757 0.38916162 0.77000004
0.65708458 0.38916162 0.77000004
0.65863508 0.3886562 0.76900005
0.66103894 0.3886562 0.76900005
0.66344285 0.3886562 0.76900005
0.66584671 0.3886562 0.76900005
0.66825056 0.3886562 0.76900005
0.67152655 0.38916162 0.77000004
0.67393351 0.38916162 0.77000004
0.67634052 0.38916162 0.77000004
0.67874753 0.38916162 0.77000004
0.68115449 0.38916162 0.77000004
0.68533695 0.39017239 0.77200001
0.68775022 0.39017239 0.77200001
0.69016343 0.39017239 0.77200001
0.69257671 0.39017239 0.77200001
0.69589025 0.39067784 0.77300006
0.69920999 0.39118323 0.77400005
0.70162946 0.39118323 0.77400005
0.70404899 0.39118323 0.77400005
0.70646852 0.39118323 0.77400005
0.70888799 0.39118323 0.77400005
0.71130753 0.39118323 0.77400005
0.713727 0.39118323 0.77400005
0.71614647 0.39118323 0.77400005
0.718566 0.39118323 0.77400005
0.72098547 0.39118323 0.77400005
0.723405 0.39118323 0.77400005
0.72582448 0.39118323 0.77400005
0.72824401 0.39118323 0.77400005
0.73066348 0.39118323 0.77400005
0.73213583 0.39067784 0.77300006
0.7345522 0.39067784 0.77300006
0.73696858 0.39067784 0.77300006
0.73842841 0.39017239 0.77200001
0.74084163 0.39017239 0.77200001
0.7432549 0.39017239 0.77200001
0.74277049 0.3886562 0.76900005
0.74517435 0.3886562 0.76900005
0.74757826 0.3886562 0.76900005
0.74900681 0.38815078 0.76800001
0.75140756 0.38815078 0.76800001
0.75380832 0.38815078 0.76800001
0.75522441 0.38764536 0.76700002
0.75762206 0.38764536 0.76700002
0.76001966 0.38764536 0.76700002
0.76241726 0.38764536 0.76700002
0.76381773 0.38713998 0.76600003
0.76621222 0.38713998 0.76600003
-0.66007626 0.33766434 0.66400003
-0.65899158 0.33817288 0.66500002
-0.65790063 0.3386814 0.66600001
-0.65581876 0.3386814 0.66600001
-0.65373689 0.3386814 0.66600001
-0.65263349 0.33918995 0.66700006
-0.64957309 0.3386814 0.66600001
-0.64749116 0.3386814 0.66600001
-0.64540929 0.3386814 0.66600001
-0.6423614 0.33817288 0.66500002
-0.64028263 0.33817288 0.66500002
-0.63820386 0.33817288 0.66500002
-0.63612509 0.33817288 0.66500002
-0.63404638 0.33817288 0.66500002
-0.6319676 0.33817288 0.66500002
-0.62988883 0.33817288 0.66500002
-0.62781006 0.33817288 0.66500002
-0.62573129 0.33817288 0.66500002
-0.62459034 0.3386814 0.66600001
-0.62250841 0.3386814 0.66600001
-0.62042654 0.3386814 0.66600001
-0.61834466 0.3386814 0.66600001
-0.61626273 0.3386814 0.66600001
-0.61418086 0.3386814 0.66600001
-0.61577523 0.34071553 0.67000002
-0.61368084 0.34071553 0.67000002
-0.61067367 0.34020701 0.66900003
-0.60767269 0.33969846 0.66800004
-0.60558456 0.33969846 0.66800004
-0.60349643 0.33969846 0.66800004
-0.60140824 0.33969846 0.66800004
-0.59932005 0.33969846 0.66800004
-0.59723192 0.33969846 0.66800004
-0.5951438 0.33969846 0.66800004
-0.59305567 0.33969846 0.66800004
-0.59096748 0.33969846 0.66800004
-0.58887935 0.33969846 0.66800004
-0.58679122 0.33969846 0.66800004
-0.58470309 0.33969846 0.66800004
-0.5826149 0.33969846 0.66800004
-0.5813958 0.34020701 0.66900003
-0.57930452 0.34020701 0.66900003
-0.57721329 0.34020701 0.66900003
-0.575122 0.34020701 0.66900003
-0.57303071 0.34020701 0.66900003
-0.57093948 0.34020701 0.66900003
-0.56884819 0.34020701 0.66900003
-0.5667569 0.34020701 0.66900003
-0.56466562 0.34020701 0.66900003
-0.56341529 0.34071553 0.67000002
-0.5613209 0.34071553 0.67000002
-0.56006116 0.34122404 0.671
-0.55796361 0.34122404 0.671
-0.55669457 0.34173259 0.67200005
-0.55541915 0.34224114 0.67300004
-0.55331534 0.34224114 0.67300004
-0.55203062 0.34274966 0.67400002
-0.54992372 0.34274966 0.67400002
-0.54781681 0.34274966 0.67400002
-0.54570991 0.34274966 0.67400002
-0.543603 0.34274966 0.67400002
-0.5414961 0.34274966 0.67400002
-0.53938919 0.34274966 0.67400002
-0.53648514 0.34224114 0.67300004
-0.53438139 0.34224114 0.67300004
-0.53148669 0.34173259 0.67200005
-0.52938604 0.34173259 0.67200005
-0.5272854 0.34173259 0.67200005
-0.52440321 0.34122404 0.671
-0.52230567 0.34122404 0.671
-0.52098346 0.34173259 0.67200005
-0.51811063 0.34122404 0.671
-0.51601315 0.34122404 0.671
-0.51468152 0.34173259 0.67200005
-0.51258087 0.34173259 0.67200005
-0.51048023 0.34173259 0.67200005
-0.50837952 0.34173259 0.67200005
-0.50627887 0.34173259 0.67200005
-0.50417823 0.34173259 0.67200005
-0.50207758 0.34173259 0.67200005
-0.49997693 0.34173259 0.67200005
-0.49713537 0.34122404 0.671
-0.49503785 0.34122404 0.671
-0.49367499 0.34173259 0.67200005
-0.49084279 0.34122404 0.671
-0.4880169 0.34071553 0.67000002
-0.48592252 0.34071553 0.67000002
-0.4838281 0.34071553 0.67000002
-0.48245272 0.34122404 0.671
-0.48035517 0.34122404 0.671
-0.47825766 0.34122404 0.671
-0.47616014 0.34122404 0.671
-0.47476915 0.34173259 0.67200005
-0.4726685 0.34173259 0.67200005
-0.47056785 0.34173259 0.67200005
-0.46916431 0.34224114 0.67300004
-0.46775454 0.34274966 0.67400002
-0.46564764 0.34274966 0.67400002
-0.46422842 0.34325817 0.67500001
-0.46211842 0.34325817 0.67500001
-0.46000838 0.34325817 0.67500001
-0.45789835 0.34325817 0.67500001
-0.45578831 0.34325817 0.67500001
-0.45367831 0.34325817 0.67500001
-0.45156828 0.34325817 0.67500001
-0.44945824 0.34325817 0.67500001
-0.44734821 0.34325817 0.67500001
-0.4452382 0.34325817 0.67500001
-0.44312817 0.34325817 0.67500001
-0.44101813 0.34325817 0.67500001
-0.4389081 0.34325817 0.67500001
-0.43744522 0.34376672 0.67600006
-0.43533206 0.34376672 0.67600006
-0.43385977 0.34427524 0.67700005
-0.43174347 0.34427524 0.67700005
-0.43026179 0.34478378 0.67800003
-0.42877388 0.3452923 0.67900002
-0.42665133 0.3452923 0.67900002
-0.42515403 0.34580082 0.68000001
-0.42302838 0.34580082 0.68000001
-0.42090267 0.34580082 0.68000001
-0.41877702 0.34580082 0.68000001
-0.4172641 0.34630936 0.68100005
-0.41513532 0.34630936 0.68100005
-0.41300654 0.34630936 0.68100005
-0.41087776 0.34630936 0.68100005
-0.40934917 0.34681791 0.68200004
-0.40721726 0.34681791 0.68200004
-0.40508536 0.34681791 0.68200004
-0.40295348 0.34681791 0.68200004
-0.40082157 0.34681791 0.68200004
-0.39868966 0.34681791 0.68200004
-0.39655775 0.34681791 0.68200004
-0.3938475 0.34630936 0.68100005
-0.39171872 0.34630936 0.68100005
-0.38958994 0.34630936 0.68100005
-0.38746116 0.34630936 0.68100005
-0.38533238 0.34630936 0.68100005
-0.3832036 0.34630936 0.68100005
-0.38107479 0.34630936 0.68100005
-0.37894601 0.34630936 0.68100005
-0.37681723 0.34630936 0.68100005
-0.37468842 0.34630936 0.68100005
-0.37255964 0.34630936 0.68100005
-0.37315059 0.34885204 0.68600005
-0.37100619 0.34885204 0.68600005
-0.36886176 0.34885204 0.68600005
-0.36725193 0.34936056 0.68700004
-0.36510438 0.34936056 0.68700004
-0.36348516 0.34986907 0.68800002
-0.3613345 0.34986907 0.68800002
-0.3597059 0.35037759 0.68900001
-0.35755211 0.35037759 0.68900001
-0.35539833 0.35037759 0.68900001
-0.35324454 0.35037759 0.68900001
-0.35109073 0.35037759 0.68900001
-0.34893695 0.35037759 0.68900001
-0.34678316 0.35037759 0.68900001
-0.34462938 0.35037759 0.68900001
-0.34197849 0.34986907 0.68800002
-0.33982784 0.34986907 0.68800002
-0.33767718 0.34986907 0.68800002
-0.3355265 0.34986907 0.68800002
-0.33337584 0.34986907 0.68800002
-0.33122519 0.34986907 0.68800002
-0.3290745 0.34986907 0.68800002
-0.32692385 0.34986907 0.68800002
-0.32477319 0.34986907 0.68800002
-0.32262251 0.34986907 0.68800002
-0.32047185 0.34986907 0.68800002
-0.31878385 0.35037759 0.68900001
-0.31708962 0.35088617 0.69000006
-0.31538913 0.35139468 0.69100004
-0.31322908 0.35139468 0.69100004
-0.31151921 0.3519032 0.69200003
-0.30980307 0.35241172 0.69300002
-0.3076368 0.35241172 0.69300002
-0.30591127 0.35292026 0.69400001
-0.30461723 0.35393733 0.69600004
-0.30244154 0.35393733 0.69600004
-0.30069727 0.35444584 0.69700003
-0.29851845 0.35444584 0.69700003
-0.29676482 0.35495439 0.69800001
-0.2945829 0.35495439 0.69800001
-0.29240099 0.35495439 0.69800001
-0.29021904 0.35495439 0.69800001
-0.28762448 0.35444584 0.69700003
-0.28544566 0.35444584 0.69700003
-0.28326687 0.35444584 0.69700003
-0.2806848 0.35393733 0.69600004
-0.27850911 0.35393733 0.69600004
-0.27633345 0.35393733 0.69600004
-0.27376387 0.35342881 0.69500005
-0.27120051 0.35292026 0.69400001
-0.26903111 0.35292026 0.69400001
-0.26686168 0.35292026 0.69400001
-0.26431087 0.35241172 0.69300002
-0.26214457 0.35241172 0.69300002
-0.26035342 0.35292026 0.69400001
-0.25818399 0.35292026 0.69400001
-0.25601459 0.35292026 0.69400001
-0.25421095 0.35342881 0.69500005
-0.25203839 0.35342881 0.69500005
-0.24986583 0.35342881 0.69500005
-0.24769329 0.35342881 0.69500005
-0.24516745 0.35292026 0.69400001
-0.24299803 0.35292026 0.69400001
-0.24082862 0.35292026 0.69400001
-0.23865919 0.35292026 0.69400001
-0.23614901 0.35241172 0.69300002
-0.23398273 0.35241172 0.69300002
-0.23181643 0.35241172 0.69300002
-0.22965012 0.35241172 0.69300002
-0.22715558 0.3519032 0.69200003
-0.22499241 0.3519032 0.69200003
-0.22282922 0.3519032 0.69200003
-0.22034718 0.35139468 0.69100004
-0.21818714 0.35139468 0.69100004
-0.21571447 0.35088617 0.69000006
-0.21355756 0.35088617 0.69000006
-0.21140064 0.35088617 0.69000006
-0.20894046 0.35037759 0.68900001
-0.20618641 0.34936056 0.68700004
-0.20403889 0.34936056 0.68700004
-0.20159747 0.34885204 0.68600005
-0.19945306 0.34885204 0.68600005
-0.19730863 0.34885204 0.68600005
-0.19544871 0.34936056 0.68700004
-0.19330117 0.34936056 0.68700004
-0.19115363 0.34936056 0.68700004
-0.18928121 0.34986907 0.68800002
-0.18713054 0.34986907 0.68800002
-0.18524875 0.35037759 0.68900001
-0.18362644 0.35139468 0.69100004
-0.1814664 0.35139468 0.69100004
-0.17982532 0.35241172 0.69300002
-0.17817177 0.35342881 0.69500005
-0.17625242 0.35393733 0.69600004
-0.17407675 0.35393733 0.69600004
-0.17214808 0.35444584 0.69700003
-0.17021312 0.35495439 0.69800001
-0.1680312 0.35495439 0.69800001
-0.16584927 0.35495439 0.69800001
-0.16366735 0.35495439 0.69800001
-0.16125408 0.35444584 0.69700003
-0.15884703 0.35393733 0.69600004
-0.15667138 0.35393733 0.69600004
-0.1544957 0.35393733 0.69600004
-0.15210117 0.35342881 0.69500005
-0.14971289 0.35292026 0.69400001
-0.14754348 0.35292026 0.69400001
-0.14537404 0.35292026 0.69400001
-0.14320463 0.35292026 0.69400001
-0.1410352 0.35292026 0.69400001
-0.1384656 0.3519032 0.69200003
-0.13630243 0.3519032 0.69200003
-0.13413925 0.3519032 0.69200003
-0.13178538 0.35139468 0.69100004
-0.12943774 0.35088617 0.69000006
-0.12728082 0.35088617 0.69000006
-0.1251239 0.35088617 0.69000006
-0.1231452 0.35139468 0.69100004
-0.12098515 0.35139468 0.69100004
-0.11882511 0.35139468 0.69100004
-0.11784691 0.35495439 0.69800001
-0.11566498 0.35495439 0.69800001
-0.11380823 0.35597146 0.70000005
-0.11162004 0.35597146 0.70000005
-0.1095882 0.35647997 0.70100003
-0.1075501 0.35698849 0.70200002
-0.10535567 0.35698849 0.70200002
-0.10330819 0.35749704 0.70300001
-0.10111064 0.35749704 0.70300001
-0.098913074 0.35749704 0.70300001
-0.096715517 0.35749704 0.70300001
-0.094652422 0.35800558 0.70400006
-0.092451744 0.35800558 0.70400006
-0.090251058 0.35800558 0.70400006
-0.088175438 0.3585141 0.70500004
-0.085971639 0.3585141 0.70500004
-0.083767831 0.3585141 0.70500004
-0.081564024 0.3585141 0.70500004
-0.079360217 0.3585141 0.70500004
-0.07715641 0.3585141 0.70500004
-0.075058915 0.35902262 0.70600003
-0.072955169 0.35953116 0.70700002
-0.070845172 0.36003968 0.708
-0.068631984 0.36003968 0.708
-0.066512614 0.36054823 0.70900005
-0.064386994 0.36105675 0.71000004
-0.062167555 0.36105675 0.71000004
-0.059948113 0.36105675 0.71000004
-0.057728678 0.36105675 0.71000004
-0.055509243 0.36105675 0.71000004
-0.053289801 0.36105675 0.71000004
-0.051070366 0.36105675 0.71000004
-0.048850924 0.36105675 0.71000004
-0.046697166 0.36156529 0.71100003
-0.044537157 0.36207381 0.71200001
-0.042370893 0.36258236 0.71300006
-0.040142078 0.36258236 0.71300006
-0.037913263 0.36258236 0.71300006
-0.035734497 0.36309087 0.71400005
-0.033502553 0.36309087 0.71400005
-0.031314407 0.36359942 0.71500003
-0.029120009 0.36410794 0.71600002
-0.026881818 0.36410794 0.71600002
-0.024678042 0.36461645 0.71700001
-0.022436721 0.36461645 0.71700001
-0.020195402 0.36461645 0.71700001
-0.017954083 0.36461645 0.71700001
-0.01569085 0.36410794 0.71600002
-0.013452657 0.36410794 0.71600002
-0.011214463 0.36410794 0.71600002
-0.008988807 0.36461645 0.71700001
-0.006747487 0.36461645 0.71700001
-0.004506168 0.36461645 0.71700001
-0.0022648489 0.36461645 0.71700001
-2.3529476e-05 0.36461645 0.71700001
0.0022177896 0.36461645 0.71700001
0.0044591087 0.36461645 0.71700001
0.006709774 0.365125 0.71800005
0.0089542195 0.365125 0.71800005
0.011198665 0.365125 0.71800005
0.01344311 0.365125 0.71800005
0.015709404 0.36563355 0.71900004
0.017956976 0.36563355 0.71900004
0.020176446 0.365125 0.71800005
0.022420891 0.365125 0.71800005
0.024665337 0.365125 0.71800005
0.026909783 0.365125 0.71800005
0.029154228 0.365125 0.71800005
0.031354941 0.36461645 0.71700001
0.033596262 0.36461645 0.71700001
0.035887562 0.365125 0.71800005
0.038078897 0.36461645 0.71700001
0.040320218 0.36461645 0.71700001
0.042561539 0.36461645 0.71700001
0.044802856 0.36461645 0.71700001
0.047044177 0.36461645 0.71700001
0.049285494 0.36461645 0.71700001
0.051526815 0.36461645 0.71700001
0.053693142 0.36410794 0.71600002
0.055931333 0.36410794 0.71600002
0.058169533 0.36410794 0.71600002
0.060407724 0.36410794 0.71600002
0.062733412 0.36461645 0.71700001
0.065065354 0.365125 0.71800005
0.067309797 0.365125 0.71800005
0.069554247 0.365125 0.71800005
0.071898684 0.36563355 0.71900004
0.074146256 0.36563355 0.71900004
0.076393835 0.36563355 0.71900004
0.0786414 0.36563355 0.71900004
0.080888972 0.36563355 0.71900004
0.083136544 0.36563355 0.71900004
0.08550287 0.36614206 0.72000003
0.087753564 0.36614206 0.72000003
0.089879259 0.36563355 0.71900004
0.092126831 0.36563355 0.71900004
0.094374396 0.36563355 0.71900004
0.096621968 0.36563355 0.71900004
0.098869547 0.36563355 0.71900004
0.10097648 0.365125 0.71800005
0.10322092 0.365125 0.71800005
0.10546537 0.365125 0.71800005
0.10770981 0.365125 0.71800005
0.10995427 0.365125 0.71800005
0.11219871 0.365125 0.71800005
0.11460254 0.36563355 0.71900004
0.11685012 0.36563355 0.71900004
0.11909768 0.36563355 0.71900004
0.12134525 0.36563355 0.71900004
0.12359283 0.36563355 0.71900004
0.1258404 0.36563355 0.71900004
0.12808797 0.36563355 0.71900004
0.13033554 0.36563355 0.71900004
0.13276751 0.36614206 0.72000003
0.13501821 0.36614206 0.72000003
0.1372689 0.36614206 0.72000003
0.1395196 0.36614206 0.72000003
0.1417703 0.36614206 0.72000003
0.14402099 0.36614206 0.72000003
0.14647484 0.36665058 0.72100002
0.14872867 0.36665058 0.72100002
0.15265775 0.37071884 0.72900003
0.15514912 0.37122735 0.73000002
0.15743107 0.37122735 0.73000002
0.1601506 0.37224445 0.73200005
0.16266073 0.37275296 0.73300004
0.16495205 0.37275296 0.73300004
0.16724339 0.37275296 0.73300004
0.16953473 0.37275296 0.73300004
0.17182606 0.37275296 0.73300004
0.17411739 0.37275296 0.73300004
0.17616807 0.37224445 0.73200005
0.17845628 0.37224445 0.73200005
0.18074448 0.37224445 0.73200005
0.18303269 0.37224445 0.73200005
0.1853209 0.37224445 0.73200005
0.18735279 0.37173587 0.73100001
0.18963788 0.37173587 0.73100001
0.19192296 0.37173587 0.73100001
0.19420806 0.37173587 0.73100001
0.19649315 0.37173587 0.73100001
0.19905016 0.37224445 0.73200005
0.20133837 0.37224445 0.73200005
0.20362657 0.37224445 0.73200005
0.20619608 0.37275296 0.73300004
0.20877184 0.37326148 0.73400003
0.21106631 0.37326148 0.73400003
0.21336076 0.37326148 0.73400003
0.21565522 0.37326148 0.73400003
0.21794967 0.37326148 0.73400003
0.22024415 0.37326148 0.73400003
0.22253862 0.37326148 0.73400003
0.22483307 0.37326148 0.73400003
0.22712754 0.37326148 0.73400003
0.229422 0.37326148 0.73400003
0.23171645 0.37326148 0.73400003
0.23401092 0.37326148 0.73400003
0.23630537 0.37326148 0.73400003
0.23859984 0.37326148 0.73400003
0.24089429 0.37326148 0.73400003
0.24318875 0.37326148 0.73400003
0.2454832 0.37326148 0.73400003
0.24777769 0.37326148 0.73400003
0.25007215 0.37326148 0.73400003
0.2523666 0.37326148 0.73400003
0.25500801 0.37377 0.73500001
0.25730559 0.37377 0.73500001
0.25995639 0.37427858 0.73600006
0.26261345 0.37478709 0.73700005
0.26491725 0.37478709 0.73700005
0.26758367 0.37529561 0.73800004
0.27025634 0.37580413 0.73900002
0.27256644 0.37580413 0.73900002
0.27562046 0.37682122 0.74100006
0.27793682 0.37682122 0.74100006
0.28025314 0.37682122 0.74100006
0.28295082 0.37732974 0.74200004
0.28565475 0.37783825 0.74300003
0.28875253 0.37885535 0.74500006
0.29108137 0.37885535 0.74500006
0.29262254 0.37783825 0.74300003
0.29494512 0.37783825 0.74300003
0.29646754 0.37682122 0.74100006
0.29878387 0.37682122 0.74100006
0.30110025 0.37682122 0.74100006
0.30341658 0.37682122 0.74100006
0.30573294 0.37682122 0.74100006
0.30804926 0.37682122 0.74100006
0.31036562 0.37682122 0.74100006
0.31183797 0.37580413 0.73900002
0.31414807 0.37580413 0.73900002
0.31560174 0.37478709 0.73700005
0.31747422 0.37427858 0.73600006
0.31977493 0.37427858 0.73600006
0.32207564 0.37427858 0.73600006
0.32437637 0.37427858 0.73600006
0.32667708 0.37427858 0.73600006
0.32897779 0.37427858 0.73600006
0.33082837 0.37377 0.73500001
0.33312595 0.37377 0.73500001
0.33587992 0.37427858 0.73600006
0.33818063 0.37427858 0.73600006
0.34001872 0.37377 0.73500001
0.3423163 0.37377 0.73500001
0.34461388 0.37377 0.73500001
0.34738347 0.37427858 0.73600006
0.34968421 0.37427858 0.73600006
0.35246316 0.37478709 0.73700005
0.35476699 0.37478709 0.73700005
0.35707083 0.37478709 0.73700005
0.35986227 0.37529561 0.73800004
0.36216924 0.37529561 0.73800004
0.3644762 0.37529561 0.73800004
0.36678317 0.37529561 0.73800004
0.36909014 0.37529561 0.73800004
0.37190035 0.37580413 0.73900002
0.37421045 0.37580413 0.73900002
0.37652054 0.37580413 0.73900002
0.37883061 0.37580413 0.73900002
0.38114071 0.37580413 0.73900002
0.38396966 0.37631267 0.74000001
0.38628289 0.37631267 0.74000001
0.38912126 0.37682122 0.74100006
0.39196584 0.37732974 0.74200004
0.39428532 0.37732974 0.74200004
0.39660478 0.37732974 0.74200004
0.39946187 0.37783825 0.74300003
0.40178445 0.37783825 0.74300003
0.40519485 0.37885535 0.74500006
0.40807068 0.37936386 0.74600005
0.41040266 0.37936386 0.74600005
0.41384116 0.38038093 0.74800003
0.41617936 0.38038093 0.74800003
0.4190771 0.38088945 0.74900001
0.42141849 0.38088945 0.74900001
0.42375985 0.38088945 0.74900001
0.4266701 0.38139799 0.75000006
0.42844254 0.38088945 0.74900001
0.43020874 0.38038093 0.74800003
0.43254697 0.38038093 0.74800003
0.4348852 0.38038093 0.74800003
0.4372234 0.38038093 0.74800003
0.44249988 0.38292357 0.75300002
0.44485372 0.38292357 0.75300002
0.4466137 0.38241503 0.75200003
0.44896442 0.38241503 0.75200003
0.45131513 0.38241503 0.75200003
0.45306259 0.38190651 0.75100005
0.45480379 0.38139799 0.75000006
0.45714828 0.38139799 0.75000006
0.45888007 0.38088945 0.74900001
0.46122143 0.38088945 0.74900001
0.46418169 0.38139799 0.75000006
0.46652618 0.38139799 0.75000006
0.4694958 0.38190651 0.75100005
0.47247168 0.38241503 0.75200003
0.47482246 0.38241503 0.75200003
0.47717318 0.38241503 0.75200003
0.48079923 0.38343209 0.75400001
0.48443779 0.38444915 0.75600004
0.48680103 0.38444915 0.75600004
0.4898113 0.3849577 0.75700003
0.4928278 0.38546622 0.75800002
0.4951973 0.38546622 0.75800002
0.49822322 0.38597476 0.75900006
0.50125539 0.38648328 0.76000005
0.50296843 0.38597476 0.75900006
0.50534105 0.38597476 0.75900006
0.50771368 0.38597476 0.75900006
0.51008624 0.38597476 0.75900006
0.51245886 0.38597476 0.75900006
0.51483148 0.38597476 0.75900006
0.51788551 0.38648328 0.76000005
0.52026123 0.38648328 0.76000005
0.52263695 0.38648328 0.76000005
0.52570349 0.38699183 0.76100004
0.52808237 0.38699183 0.76100004
0.53046125 0.38699183 0.76100004
0.53284013 0.38699183 0.76100004
0.53521901 0.38699183 0.76100004
0.53830427 0.38750035 0.76200002
0.54068625 0.38750035 0.76200002
0.54306823 0.38750035 0.76200002
0.54545021 0.38750035 0.76200002
0.5471133 0.38699183 0.76100004
0.54949218 0.38699183 0.76100004
0.551871 0.38699183 0.76100004
0.55352157 0.38648328 0.76000005
0.5558973 0.38648328 0.76000005
0.55753845 0.38597476 0.75900006
0.55991107 0.38597476 0.75900006
0.56228369 0.38597476 0.75900006
0.56465632 0.38597476 0.75900006
0.56702888 0.38597476 0.75900006
0.5694015 0.38597476 0.75900006
0.57177413 0.38597476 0.75900006
0.57339025 0.38546622 0.75800002
0.57575971 0.38546622 0.75800002
0.57812923 0.38546622 0.75800002
0.5804987 0.38546622 0.75800002
0.58286822 0.38546622 0.75800002
0.58523768 0.38546622 0.75800002
0.5876072 0.38546622 0.75800002
0.59075505 0.38597476 0.75900006
0.59312761 0.38597476 0.75900006
0.5947156 0.38546622 0.75800002
0.59708512 0.38546622 0.75800002
0.59945458 0.38546622 0.75800002
0.60182405 0.38546622 0.75800002
0.60499066 0.38597476 0.75900006
0.60816348 0.38648328 0.76000005
0.6105392 0.38648328 0.76000005
0.61291498 0.38648328 0.76000005
0.61690986 0.38750035 0.76200002
0.61929184 0.38750035 0.76200002
0.62167382 0.38750035 0.76200002
0.62487477 0.38800886 0.76300001
0.62725991 0.38800886 0.76300001
0.62964499 0.38800886 0.76300001
0.63203013 0.38800886 0.76300001
0.63441521 0.38800886 0.76300001
0.63680035 0.38800886 0.76300001
0.63834774 0.38750035 0.76200002
0.64072978 0.38750035 0.76200002
0.64311177 0.38750035 0.76200002
0.64634085 0.38800886 0.76300001
0.64872593 0.38800886 0.76300001
0.65111107 0.38800886 0.76300001
0.65349615 0.38800886 0.76300001
0.65502167 0.38750035 0.76200002
0.65740365 0.38750035 0.76200002
0.65978563 0.38750035 0.76200002
0.66216761 0.38750035 0.76200002
0.66542172 0.38800886 0.76300001
0.6678068 0.38800886 0.76300001
0.67019194 0.38800886 0.76300001
0.67434007 0.38902596 0.76500005
0.67673141 0.38902596 0.76500005
0.67912281 0.38902596 0.76500005
0.68240499 0.38953447 0.76600003
0.68390554 0.38902596 0.76500005
0.68629688 0.38902596 0.76500005
0.68958849 0.38953447 0.76600003
0.69288635 0.39004299 0.76700002
0.69528395 0.39004299 0.76700002
0.69768161 0.39004299 0.76700002
0.7000792 0.39004299 0.76700002
0.70156097 0.38953447 0.76600003
0.70395547 0.38953447 0.76600003
0.70727205 0.39004299 0.76700002
0.70966971 0.39004299 0.76700002
0.71206731 0.39004299 0.76700002
0.7144649 0.39004299 0.76700002
0.71686256 0.39004299 0.76700002
0.71926016 0.39004299 0.76700002
0.72165775 0.39004299 0.76700002
0.72311139 0.38953447 0.76600003
0.72550589 0.38953447 0.76600003
0.72695011 0.38902596 0.76500005
0.72934151 0.38902596 0.76500005
0.73173285 0.38902596 0.76500005
0.73412418 0.38902596 0.76500005
0.7432549 0.39258564 0.77200001
0.74277049 0.39106008 0.76900005
0.74517435 0.39106008 0.76900005
0.74757826 0.39106008 0.76900005
0.74900681 0.39055151 0.76800001
0.75140756 0.39055151 0.76800001
0.75380832 0.39055151 0.76800001
0.75522441 0.39004299 0.76700002
0.75762206 0.39004299 0.76700002
0.76001966 0.39004299 0.76700002
0.76241726 0.39004299 0.76700002
0.76381773 0.38953447 0.76600003
0.76621222 0.38953447 0.76600003
-0.66007626 0.33973998 0.66400003
-0.65899158 0.34025162 0.66500002
-0.65790063 0.3407633 0.66600001
-0.65581876 0.3407633 0.66600001
-0.65373689 0.3407633 0.66600001
-0.65263349 0.34127498 0.66700006
-0.64957309 0.3407633 0.66600001
-0.64749116 0.3407633 0.66600001
-0.64540929 0.3407633 0.66600001
-0.6423614 0.34025162 0.66500002
-0.64028263 0.34025162 0.66500002
-0.63820386 0.34025162 0.66500002
-0.63612509 0.34025162 0.66500002
-0.63404638 0.34025162 0.66500002
-0.6319676 0.34025162 0.66500002
-0.62988883 0.34025162 0.66500002
-0.62781006 0.34025162 0.66500002
-0.62573129 0.34025162 0.66500002
-0.62459034 0.3407633 0.66600001
-0.62250841 0.3407633 0.66600001
-0.62042654 0.3407633 0.66600001
-0.61834466 0.3407633 0.66600001
-0.61626273 0.3407633 0.66600001
-0.61418086 0.3407633 0.66600001
-0.61209899 0.3407633 0.66600001
-0.60910112 0.34025162 0.66500002
-0.60610956 0.33973998 0.66400003
-0.60312426 0.33922833 0.66300005
-0.60105175 0.33922833 0.66300005
-0.59897923 0.33922833 0.66300005
-0.59600639 0.33871669 0.66200006
-0.59393698 0.33871669 0.66200006
-0.59186757 0.33871669 0.66200006
-0.58979821 0.33871669 0.66200006
-0.58861661 0.33922833 0.66300005
-0.58565944 0.33871669 0.66200006
-0.58359003 0.33871669 0.66200006
-0.58239907 0.33922833 0.66300005
-0.58032656 0.33922833 0.66300005
-0.57825404 0.33922833 0.66300005
-0.57705057 0.33973998 0.66400003
-0.57497489 0.33973998 0.66400003
-0.57289928 0.33973998 0.66400003
-0.57082361 0.33973998 0.66400003
-0.568748 0.33973998 0.66400003
-0.56667233 0.33973998 0.66400003
-0.56459671 0.33973998 0.66400003
-0.56252104 0.33973998 0.66400003
-0.56044543 0.33973998 0.66400003
-0.55921072 0.34025162 0.66500002
-0.55796969 0.3407633 0.66600001
-0.55672252 0.34127498 0.66700006
-0.55463749 0.34127498 0.66700006
-0.55338091 0.34178662 0.66800004
-0.55129272 0.34178662 0.66800004
-0.54920453 0.34178662 0.66800004
-0.5471164 0.34178662 0.66800004
-0.54502827 0.34178662 0.66800004
-0.54294014 0.34178662 0.66800004
-0.54085195 0.34178662 0.66800004
-0.53876382 0.34178662 0.66800004
-0.53667569 0.34178662 0.66800004
-0.53458756 0.34178662 0.66800004
-0.53249937 0.34178662 0.66800004
-0.53041124 0.34178662 0.66800004
-0.52753222 0.34127498 0.66700006
-0.52544719 0.34127498 0.66700006
-0.52336216 0.34127498 0.66700006
-0.52127713 0.34127498 0.66700006
-0.51919216 0.34127498 0.66700006
-0.51710713 0.34127498 0.66700006
-0.51424992 0.3407633 0.66600001
-0.51216799 0.3407633 0.66600001
-0.51008612 0.3407633 0.66600001
-0.50800425 0.3407633 0.66600001
-0.50592232 0.3407633 0.66600001
-0.50384039 0.3407633 0.66600001
-0.50175852 0.3407633 0.66600001
-0.49967661 0.3407633 0.66600001
-0.49834189 0.34127498 0.66700006
-0.49625689 0.34127498 0.66700006
-0.49417186 0.34127498 0.66700006
-0.49134904 0.3407633 0.66600001
-0.48926714 0.3407633 0.66600001
-0.48718527 0.3407633 0.66600001
-0.48510337 0.3407633 0.66600001
-0.48302147 0.3407633 0.66600001
-0.48093957 0.3407633 0.66600001
-0.4788577 0.3407633 0.66600001
-0.4767758 0.3407633 0.66600001
-0.47469389 0.3407633 0.66600001
-0.47261199 0.3407633 0.66600001
-0.47053012 0.3407633 0.66600001
-0.46844822 0.3407633 0.66600001
-0.46636632 0.3407633 0.66600001
-0.46498159 0.34127498 0.66700006
-0.46359056 0.34178662 0.66800004
-0.4615024 0.34178662 0.66800004
-0.45941424 0.34178662 0.66800004
-0.45732608 0.34178662 0.66800004
-0.45523793 0.34178662 0.66800004
-0.4531498 0.34178662 0.66800004
-0.45106164 0.34178662 0.66800004
-0.44897351 0.34178662 0.66800004
-0.44688535 0.34178662 0.66800004
-0.44546306 0.34229827 0.66900003
-0.44734821 0.34536821 0.67500001
-0.4452382 0.34536821 0.67500001
-0.44312817 0.34536821 0.67500001
-0.44101813 0.34536821 0.67500001
-0.4389081 0.34536821 0.67500001
-0.43744522 0.34587988 0.67600006
-0.43533206 0.34587988 0.67600006
-0.43385977 0.34639153 0.67700005
-0.43174347 0.34639153 0.67700005
-0.43026179 0.34690318 0.67800003
-0.42877388 0.34741482 0.67900002
-0.42665133 0.34741482 0.67900002
-0.42515403 0.34792647 0.68000001
-0.42302838 0.34792647 0.68000001
-0.42090267 0.34792647 0.68000001
-0.41877702 0.34792647 0.68000001
-0.4172641 0.34843817 0.68100005
-0.41513532 0.34843817 0.68100005
-0.41300654 0.34843817 0.68100005
-0.41087776 0.34843817 0.68100005
-0.40934917 0.34894982 0.68200004
-0.40721726 0.34894982 0.68200004
-0.40508536 0.34894982 0.68200004
-0.40295348 0.34894982 0.68200004
-0.40082157 0.34894982 0.68200004
-0.39868966 0.34894982 0.68200004
-0.39655775 0.34894982 0.68200004
-0.3938475 0.34843817 0.68100005
-0.39171872 0.34843817 0.68100005
-0.38958994 0.34843817 0.68100005
-0.38746116 0.34843817 0.68100005
-0.38533238 0.34843817 0.68100005
-0.3832036 0.34843817 0.68100005
-0.38107479 0.34843817 0.68100005
-0.37894601 0.34843817 0.68100005
-0.37681723 0.34843817 0.68100005
-0.37468842 0.34843817 0.68100005
-0.37255964 0.34843817 0.68100005
-0.37097478 0.34894982 0.68200004
-0.36884287 0.34894982 0.68200004
-0.36671096 0.34894982 0.68200004
-0.36511365 0.34946147 0.68300003
-0.36297861 0.34946147 0.68300003
-0.36137187 0.34997311 0.68400002
-0.35923371 0.34997311 0.68400002
-0.35761765 0.35048479 0.68500006
-0.35547635 0.35048479 0.68500006
-0.35333508 0.35048479 0.68500006
-0.35119379 0.35048479 0.68500006
-0.34905249 0.35048479 0.68500006
-0.34640476 0.34997311 0.68400002
-0.34426659 0.34997311 0.68400002
-0.34212843 0.34997311 0.68400002
-0.33949319 0.34946147 0.68300003
-0.33735815 0.34946147 0.68300003
-0.33522314 0.34946147 0.68300003
-0.3330881 0.34946147 0.68300003
-0.33095306 0.34946147 0.68300003
-0.32881802 0.34946147 0.68300003
-0.32668298 0.34946147 0.68300003
-0.32454795 0.34946147 0.68300003
-0.32241291 0.34946147 0.68300003
-0.32027787 0.34946147 0.68300003
-0.31814286 0.34946147 0.68300003
-0.31647047 0.34997311 0.68400002
-0.31479189 0.35048479 0.68500006
-0.31265059 0.35048479 0.68500006
-0.31050929 0.35048479 0.68500006
-0.30881819 0.35099643 0.68600005
-0.3071208 0.35150808 0.68700004
-0.30497327 0.35150808 0.68700004
-0.30326653 0.35201973 0.68800002
-0.30199122 0.35304308 0.69000006
-0.29983428 0.35304308 0.69000006
-0.29767737 0.35304308 0.69000006
-0.29594871 0.35355473 0.69100004
-0.29378867 0.35355473 0.69100004
-0.29162863 0.35355473 0.69100004
-0.28946859 0.35355473 0.69100004
-0.28730854 0.35355473 0.69100004
-0.2851485 0.35355473 0.69100004
-0.28298846 0.35355473 0.69100004
-0.28082842 0.35355473 0.69100004
-0.27826512 0.35304308 0.69000006
-0.27570802 0.3525314 0.68900001
-0.27355424 0.3525314 0.68900001
-0.27140042 0.3525314 0.68900001
-0.26885584 0.35201973 0.68800002
-0.26670519 0.35201973 0.68800002
-0.26455453 0.35201973 0.68800002
-0.26240385 0.35201973 0.68800002
-0.26025319 0.35201973 0.68800002
-0.25772738 0.35150808 0.68700004
-0.25557986 0.35150808 0.68700004
-0.2534323 0.35150808 0.68700004
-0.25165054 0.35201973 0.68800002
-0.24913724 0.35150808 0.68700004
-0.24698967 0.35150808 0.68700004
-0.24519852 0.35201973 0.68800002
-0.24304786 0.35201973 0.68800002
-0.24054706 0.35150808 0.68700004
-0.23839952 0.35150808 0.68700004
-0.23625198 0.35150808 0.68700004
-0.23410444 0.35150808 0.68700004
-0.2319569 0.35150808 0.68700004
-0.22980936 0.35150808 0.68700004
-0.22766182 0.35150808 0.68700004
-0.22551429 0.35150808 0.68700004
-0.22336675 0.35150808 0.68700004
-0.2212192 0.35150808 0.68700004
-0.21875277 0.35099643 0.68600005
-0.21660836 0.35099643 0.68600005
-0.21415132 0.35048479 0.68500006
-0.21201004 0.35048479 0.68500006
-0.20986874 0.35048479 0.68500006
-0.20742419 0.34997311 0.68400002
-0.20498592 0.34946147 0.68300003
-0.20285088 0.34946147 0.68300003
-0.20042197 0.34894982 0.68200004
-0.19799933 0.34843817 0.68100005
-0.19587052 0.34843817 0.68100005
-0.19374174 0.34843817 0.68100005
-0.19330117 0.35150808 0.68700004
-0.19115363 0.35150808 0.68700004
-0.18928121 0.35201973 0.68800002
-0.18713054 0.35201973 0.68800002
-0.18524875 0.3525314 0.68900001
-0.18362644 0.35355473 0.69100004
-0.1814664 0.35355473 0.69100004
-0.17982532 0.35457802 0.69300002
-0.17817177 0.35560134 0.69500005
-0.17625242 0.35611299 0.69600004
-0.17407675 0.35611299 0.69600004
-0.17214808 0.35662466 0.69700003
-0.17021312 0.35713631 0.69800001
-0.1680312 0.35713631 0.69800001
-0.16584927 0.35713631 0.69800001
-0.16366735 0.35713631 0.69800001
-0.16125408 0.35662466 0.69700003
-0.15884703 0.35611299 0.69600004
-0.15667138 0.35611299 0.69600004
-0.1544957 0.35611299 0.69600004
-0.15210117 0.35560134 0.69500005
-0.14971289 0.35508966 0.69400001
-0.14754348 0.35508966 0.69400001
-0.14537404 0.35508966 0.69400001
-0.14320463 0.35508966 0.69400001
-0.1410352 0.35508966 0.69400001
-0.1384656 0.35406637 0.69200003
-0.13630243 0.35406637 0.69200003
-0.13413925 0.35406637 0.69200003
-0.13178538 0.35355473 0.69100004
-0.12943774 0.35304308 0.69000006
-0.12728082 0.35304308 0.69000006
-0.1251239 0.35304308 0.69000006
-0.1231452 0.35355473 0.69100004
-0.12098515 0.35355473 0.69100004
-0.11882511 0.35355473 0.69100004
-0.11666507 0.35355473 0.69100004
-0.11450502 0.35355473 0.69100004
-0.11267014 0.35457802 0.69300002
-0.11050384 0.35457802 0.69300002
-0.10865021 0.35560134 0.69500005
-0.10678407 0.35662466 0.69700003
-0.10460527 0.35662466 0.69700003
-0.10257342 0.35713631 0.69800001
-0.1003915 0.35713631 0.69800001
-0.098209567 0.35713631 0.69800001
-0.096027642 0.35713631 0.69800001
-0.093980178 0.35764799 0.69900006
-0.091795124 0.35764799 0.69900006
-0.089610077 0.35764799 0.69900006
-0.087550081 0.35815963 0.70000005
-0.085361913 0.35815963 0.70000005
-0.083173729 0.35815963 0.70000005
-0.080985554 0.35815963 0.70000005
-0.078909948 0.35867128 0.70100003
-0.076718636 0.35867128 0.70100003
-0.074527338 0.35867128 0.70100003
-0.072439216 0.35918292 0.70200002
-0.070244789 0.35918292 0.70200002
-0.068147302 0.35969457 0.70300001
-0.066043556 0.36020628 0.70400006
-0.063842878 0.36020628 0.70400006
-0.061642196 0.36020628 0.70400006
-0.059525944 0.36071792 0.70500004
-0.057322137 0.36071792 0.70500004
-0.055118334 0.36071792 0.70500004
-0.052914523 0.36071792 0.70500004
-0.050782643 0.36122957 0.70600003
-0.048575707 0.36122957 0.70600003
-0.046368774 0.36122957 0.70600003
-0.044224396 0.36174121 0.70700002
-0.04207376 0.36225286 0.708
-0.039860573 0.36225286 0.708
-0.037700564 0.36276454 0.70900005
-0.035484254 0.36276454 0.70900005
-0.033267941 0.36276454 0.70900005
-0.031095425 0.36327618 0.71000004
-0.028916657 0.36378783 0.71100003
-0.026694095 0.36378783 0.71100003
-0.024505949 0.36429951 0.71200001
-0.022280259 0.36429951 0.71200001
-0.020054569 0.36429951 0.71200001
-0.017828882 0.36429951 0.71200001
-0.015603191 0.36429951 0.71200001
-0.013377503 0.36429951 0.71200001
-0.01113615 0.36378783 0.71100003
-0.0089135868 0.36378783 0.71100003
-0.0067004338 0.36429951 0.71200001
-0.0044747447 0.36429951 0.71200001
-0.0022490548 0.36429951 0.71200001
-2.3365394e-05 0.36429951 0.71200001
0.0022023239 0.36429951 0.71200001
0.0044280132 0.36429951 0.71200001
0.0066537028 0.36429951 0.71200001
0.0088793924 0.36429951 0.71200001
0.01112068 0.36481118 0.71300006
0.013368217 0.36532283 0.71400005
0.01560016 0.36532283 0.71400005
0.017807126 0.36481118 0.71300006
0.020035943 0.36481118 0.71300006
0.022264758 0.36481118 0.71300006
0.024459219 0.36429951 0.71200001
0.02668491 0.36429951 0.71200001
0.028910598 0.36429951 0.71200001
0.031092556 0.36378783 0.71100003
0.033315122 0.36378783 0.71100003
0.035537682 0.36378783 0.71100003
0.037707139 0.36327618 0.71000004
0.039926577 0.36327618 0.71000004
0.042146016 0.36327618 0.71000004
0.044365451 0.36327618 0.71000004
0.046584889 0.36327618 0.71000004
0.048804324 0.36327618 0.71000004
0.051023766 0.36327618 0.71000004
0.053243201 0.36327618 0.71000004
0.055462636 0.36327618 0.71000004
0.057682078 0.36327618 0.71000004
0.059901513 0.36327618 0.71000004
0.062208448 0.36378783 0.71100003
0.065065354 0.36736944 0.71800005
0.067309797 0.36736944 0.71800005
0.069554247 0.36736944 0.71800005
0.071898684 0.36788109 0.71900004
0.074146256 0.36788109 0.71900004
0.076393835 0.36788109 0.71900004
0.0786414 0.36788109 0.71900004
0.080888972 0.36788109 0.71900004
0.083136544 0.36788109 0.71900004
0.08550287 0.36839277 0.72000003
0.087753564 0.36839277 0.72000003
0.089879259 0.36788109 0.71900004
0.092126831 0.36788109 0.71900004
0.094374396 0.36788109 0.71900004
0.096621968 0.36788109 0.71900004
0.098869547 0.36788109 0.71900004
0.10097648 0.36736944 0.71800005
0.10322092 0.36736944 0.71800005
0.10546537 0.36736944 0.71800005
0.10770981 0.36736944 0.71800005
0.10995427 0.36736944 0.71800005
0.11219871 0.36736944 0.71800005
0.11460254 0.36788109 0.71900004
0.11685012 0.36788109 0.71900004
0.11909768 0.36788109 0.71900004
0.12134525 0.36788109 0.71900004
0.12359283 0.36788109 0.71900004
0.1258404 0.36788109 0.71900004
0.12808797 0.36788109 0.71900004
0.13033554 0.36788109 0.71900004
0.13276751 0.36839277 0.72000003
0.13501821 0.36839277 0.72000003
0.1372689 0.36839277 0.72000003
0.1395196 0.36839277 0.72000003
0.1417703 0.36839277 0.72000003
0.14402099 0.36839277 0.72000003
0.14647484 0.36890441 0.72100002
0.14872867 0.36890441 0.72100002
0.1509825 0.36890441 0.72100002
0.15344886 0.36941609 0.72200006
0.15570581 0.36941609 0.72200006
0.15840031 0.37043938 0.72400004
0.16088544 0.37095103 0.72500002
0.16315176 0.37095103 0.72500002
0.16541809 0.37095103 0.72500002
0.16768441 0.37095103 0.72500002
0.16995074 0.37095103 0.72500002
0.17221706 0.37095103 0.72500002
0.1744834 0.37095103 0.72500002
0.17674972 0.37095103 0.72500002
0.17876913 0.37043938 0.72400004
0.18103233 0.37043938 0.72400004
0.18329553 0.37043938 0.72400004
0.18555874 0.37043938 0.72400004
0.18782192 0.37043938 0.72400004
0.19008513 0.37043938 0.72400004
0.19261402 0.37095103 0.72500002
0.19488035 0.37095103 0.72500002
0.1974186 0.37146267 0.72600001
0.19968805 0.37146267 0.72600001
0.20195749 0.37146267 0.72600001
0.20422694 0.37146267 0.72600001
0.20706527 0.37248603 0.72800004
0.20934097 0.37248603 0.72800004
0.21161668 0.37248603 0.72800004
0.21389237 0.37248603 0.72800004
0.21616808 0.37248603 0.72800004
0.21844381 0.37248603 0.72800004
0.2207195 0.37248603 0.72800004
0.22299521 0.37248603 0.72800004
0.22527091 0.37248603 0.72800004
0.22754662 0.37248603 0.72800004
0.22982232 0.37248603 0.72800004
0.23209803 0.37248603 0.72800004
0.23372982 0.37146267 0.72600001
0.23599929 0.37146267 0.72600001
0.23826873 0.37146267 0.72600001
0.24053818 0.37146267 0.72600001
0.24280764 0.37146267 0.72600001
0.2450771 0.37146267 0.72600001
0.24734657 0.37146267 0.72600001
0.24961601 0.37146267 0.72600001
0.25188547 0.37146267 0.72600001
0.25415492 0.37146267 0.72600001
0.25713077 0.37248603 0.72800004
0.25940648 0.37248603 0.72800004
0.26168218 0.37248603 0.72800004
0.26432046 0.37299767 0.72900003
0.266965 0.37350932 0.73000002
0.26924694 0.37350932 0.73000002
0.27190086 0.37402096 0.73100001
0.27456105 0.37453264 0.73200005
0.27684927 0.37453264 0.73200005
0.27913746 0.37453264 0.73200005
0.28181013 0.37504429 0.73300004
0.28410146 0.37504429 0.73300004
0.28639281 0.37504429 0.73300004
0.28789645 0.37402096 0.73100001
0.29018152 0.37402096 0.73100001
0.29206651 0.37350932 0.73000002
0.29434848 0.37350932 0.73000002
0.29663044 0.37350932 0.73000002
0.29891241 0.37350932 0.73000002
0.30078176 0.37299767 0.72900003
0.30306059 0.37299767 0.72900003
0.30533943 0.37299767 0.72900003
0.30719629 0.37248603 0.72800004
0.30947199 0.37248603 0.72800004
0.31089124 0.37146267 0.72600001
0.31316069 0.37146267 0.72600001
0.31543013 0.37146267 0.72600001
0.31769958 0.37146267 0.72600001
0.31996906 0.37146267 0.72600001
0.3222385 0.37146267 0.72600001
0.32450795 0.37146267 0.72600001
0.3267774 0.37146267 0.72600001
0.32904688 0.37146267 0.72600001
0.33222905 0.37248603 0.72800004
0.33450475 0.37248603 0.72800004
0.33724305 0.37299767 0.72900003
0.33952188 0.37299767 0.72900003
0.34180072 0.37299767 0.72900003
0.34738347 0.37657928 0.73600006
0.34968421 0.37657928 0.73600006
0.35246316 0.37709093 0.73700005
0.35476699 0.37709093 0.73700005
0.35707083 0.37709093 0.73700005
0.35986227 0.37760258 0.73800004
0.36216924 0.37760258 0.73800004
0.3644762 0.37760258 0.73800004
0.36678317 0.37760258 0.73800004
0.36909014 0.37760258 0.73800004
0.37190035 0.37811422 0.73900002
0.37421045 0.37811422 0.73900002
0.37652054 0.37811422 0.73900002
0.37883061 0.37811422 0.73900002
0.38114071 0.37811422 0.73900002
0.38396966 0.37862587 0.74000001
0.38628289 0.37862587 0.74000001
0.38912126 0.37913755 0.74100006
0.39196584 0.37964919 0.74200004
0.39428532 0.37964919 0.74200004
0.39660478 0.37964919 0.74200004
0.39946187 0.38016087 0.74300003
0.40178445 0.38016087 0.74300003
0.40519485 0.38118419 0.74500006
0.40807068 0.38169584 0.74600005
0.41040266 0.38169584 0.74600005
0.41384116 0.38271913 0.74800003
0.41617936 0.38271913 0.74800003
0.4190771 0.38323078 0.74900001
0.42141849 0.38323078 0.74900001
0.42375985 0.38323078 0.74900001
0.4266701 0.38374248 0.75000006
0.42844254 0.38323078 0.74900001
0.43020874 0.38271913 0.74800003
0.43254697 0.38271913 0.74800003
0.4348852 0.38271913 0.74800003
0.43663889 0.38220748 0.74700004
0.43897399 0.38220748 0.74700004
0.44071832 0.38169584 0.74600005
0.44245639 0.38118419 0.74500006
0.44478524 0.38118419 0.74500006
0.44711408 0.38118419 0.74500006
0.44823635 0.38016087 0.74300003
0.45055896 0.38016087 0.74300003
0.45288154 0.38016087 0.74300003
0.45520413 0.38016087 0.74300003
0.45752671 0.38016087 0.74300003
0.46108717 0.38118419 0.74500006
0.46341601 0.38118419 0.74500006
0.46636999 0.38169584 0.74600005
0.46870196 0.38169584 0.74600005
0.47103399 0.38169584 0.74600005
0.474635 0.38271913 0.74800003
0.47761089 0.38323078 0.74900001
0.48059306 0.38374248 0.75000006
0.48293754 0.38374248 0.75000006
0.48592904 0.38425413 0.75100005
0.4889268 0.38476577 0.75200003
0.49127755 0.38476577 0.75200003
0.49362826 0.38476577 0.75200003
0.49663854 0.38527742 0.75300002
0.4983297 0.38476577 0.75200003
0.50068045 0.38476577 0.75200003
0.50303119 0.38476577 0.75200003
0.50538188 0.38476577 0.75200003
0.50773263 0.38476577 0.75200003
0.51008332 0.38476577 0.75200003
0.51243407 0.38476577 0.75200003
0.51546931 0.38527742 0.75300002
0.51782322 0.38527742 0.75300002
0.52086782 0.38578907 0.75400001
0.52322483 0.38578907 0.75400001
0.52558178 0.38578907 0.75400001
0.52793884 0.38578907 0.75400001
0.53029579 0.38578907 0.75400001
0.53406566 0.38681239 0.75600004
0.53642893 0.38681239 0.75600004
0.53879213 0.38681239 0.75600004
0.54115534 0.38681239 0.75600004
0.5435186 0.38681239 0.75600004
0.54443765 0.38578907 0.75400001
0.54679465 0.38578907 0.75400001
0.54842329 0.38527742 0.75300002
0.5507772 0.38527742 0.75300002
0.55313104 0.38527742 0.75300002
0.55548489 0.38527742 0.75300002
0.55783874 0.38527742 0.75300002
0.56019258 0.38527742 0.75300002
0.56254643 0.38527742 0.75300002
0.56490028 0.38527742 0.75300002
0.56725413 0.38527742 0.75300002
0.56885153 0.38476577 0.75200003
0.57120228 0.38476577 0.75200003
0.57355303 0.38476577 0.75200003
0.57590371 0.38476577 0.75200003
0.57825452 0.38476577 0.75200003
0.58060521 0.38476577 0.75200003
0.58295596 0.38476577 0.75200003
0.58530664 0.38476577 0.75200003
0.58765739 0.38476577 0.75200003
0.59000814 0.38476577 0.75200003
0.59235883 0.38476577 0.75200003
0.59470958 0.38476577 0.75200003
0.59706032 0.38476577 0.75200003
0.59941101 0.38476577 0.75200003
0.60256195 0.38527742 0.75300002
0.6049158 0.38527742 0.75300002
0.60726964 0.38527742 0.75300002
0.6104331 0.38578907 0.75400001
0.61279011 0.38578907 0.75400001
0.61677879 0.38681239 0.75600004
0.619142 0.38681239 0.75600004
0.62150526 0.38681239 0.75600004
0.62386847 0.38681239 0.75600004
0.62706006 0.38732404 0.75700003
0.62942636 0.38732404 0.75700003
0.63179272 0.38732404 0.75700003
0.63415909 0.38732404 0.75700003
0.63652551 0.38732404 0.75700003
0.63889188 0.38732404 0.75700003
0.64634085 0.39039397 0.76300001
0.64872593 0.39039397 0.76300001
0.65111107 0.39039397 0.76300001
0.65349615 0.39039397 0.76300001
0.65502167 0.38988233 0.76200002
0.65740365 0.38988233 0.76200002
0.65978563 0.38988233 0.76200002
0.66216761 0.38988233 0.76200002
0.66542172 0.39039397 0.76300001
0.6678068 0.39039397 0.76300001
0.67019194 0.39039397 0.76300001
0.67434007 0.39141729 0.76500005
0.67673141 0.39141729 0.76500005
0.67912281 0.39141729 0.76500005
0.68240499 0.39192897 0.76600003
0.68390554 0.39141729 0.76500005
0.68629688 0.39141729 0.76500005
0.68958849 0.39192897 0.76600003
0.69288635 0.39244062 0.76700002
