# .PCD v0.7 - Point Cloud Data file format
VERSION 0.7
FIELDS x y z
SIZE 4 4 4
TYPE F F F
COUNT 1 1 1
WIDTH 1431
HEIGHT 1
VIEWPOINT 0 0 0 1 0 0 0
POINTS 1431
DATA ascii
0.70040303 0.39727807 0.80600005
0.70379472 0.39777097 0.80700004
0.7071926 0.39826384 0.80800003
0.70971835 0.39826384 0.80800003
0.71400714 0.39924967 0.81000006
0.71830839 0.40023544 0.81200004
0.72084665 0.40023544 0.81200004
0.72427583 0.40072834 0.81300002
0.72860521 0.40171418 0.81500006
0.73115289 0.40171418 0.81500006
0.73460078 0.40220708 0.81600004
0.73986173 0.40368578 0.81900007
0.74332839 0.40417868 0.82000005
0.74589169 0.40417868 0.82000005
0.75119323 0.40565735 0.82300001
0.75468183 0.40615028 0.82400006
0.75725758 0.40615028 0.82400006
0.76259977 0.40762895 0.82700002
0.76611024 0.40812188 0.82800007
0.76869851 0.40812188 0.82800007
0.77221829 0.40861478 0.82900006
0.77480972 0.40861478 0.82900006
0.77740115 0.40861478 0.82900006
0.77905172 0.40812188 0.82800007
0.78069597 0.40762895 0.82700002
0.78328115 0.40762895 0.82700002
0.78396583 0.40664318 0.82500005
0.78559136 0.40615028 0.82400006
0.78816718 0.40615028 0.82400006
0.78978324 0.40565735 0.82300001
0.79235595 0.40565735 0.82300001
0.79492861 0.40565735 0.82300001
0.79556328 0.40467158 0.82100004
0.79715753 0.40417868 0.82000005
0.79972082 0.40417868 0.82000005
0.80228418 0.40417868 0.82000005
0.80386597 0.40368578 0.81900007
0.80642611 0.40368578 0.81900007
0.80701071 0.40269995 0.81700003
0.80857372 0.40220708 0.81600004
0.81013054 0.40171418 0.81500006
0.81267816 0.40171418 0.81500006
0.81322527 0.40072834 0.81300002
0.81576663 0.40072834 0.81300002
-0.6879108 0.34325054 0.69200003
-0.68574762 0.34325054 0.69200003
-0.68457234 0.34374654 0.69300002
-0.68240601 0.34374654 0.69300002
-0.68122131 0.34424257 0.69400001
-0.68003041 0.34473863 0.69500005
-0.67785782 0.34473863 0.69500005
-0.67568529 0.34473863 0.69500005
-0.67448181 0.34523463 0.69600004
-0.67327207 0.34573066 0.69700003
-0.67013043 0.34523463 0.69600004
-0.66795474 0.34523463 0.69600004
-0.66577905 0.34523463 0.69600004
-0.66360343 0.34523463 0.69600004
-0.66142774 0.34523463 0.69600004
-0.65925205 0.34523463 0.69600004
-0.65707642 0.34523463 0.69600004
-0.65490073 0.34523463 0.69600004
-0.65366286 0.34573066 0.69700003
-0.65148407 0.34573066 0.69700003
-0.64930528 0.34573066 0.69700003
-0.6480549 0.34622669 0.69800001
-0.64587295 0.34622669 0.69800001
-0.64369106 0.34622669 0.69800001
-0.64150912 0.34622669 0.69800001
-0.64115912 0.34721875 0.70000005
-0.63897097 0.34721875 0.70000005
-0.63678277 0.34721875 0.70000005
-0.63459462 0.34721875 0.70000005
-0.63240641 0.34721875 0.70000005
-0.62931794 0.34672272 0.69900006
-0.62713283 0.34672272 0.69900006
-0.62494779 0.34672272 0.69900006
-0.62187177 0.34622669 0.69800001
-0.61968982 0.34622669 0.69800001
-0.61750793 0.34622669 0.69800001
-0.61444443 0.34573066 0.69700003
-0.61226565 0.34573066 0.69700003
-0.61008686 0.34573066 0.69700003
-0.60790807 0.34573066 0.69700003
-0.60572928 0.34573066 0.69700003
-0.60355049 0.34573066 0.69700003
-0.60137165 0.34573066 0.69700003
-0.59919286 0.34573066 0.69700003
-0.59701407 0.34573066 0.69700003
-0.5956887 0.34622669 0.69800001
-0.59350675 0.34622669 0.69800001
-0.59132481 0.34622669 0.69800001
-0.58914292 0.34622669 0.69800001
-0.58696097 0.34622669 0.69800001
-0.58561689 0.34672272 0.69900006
-0.58343184 0.34672272 0.69900006
-0.58540452 0.34920287 0.70400006
-0.58320379 0.34920287 0.70400006
-0.58100307 0.34920287 0.70400006
-0.57880241 0.34920287 0.70400006
-0.57660174 0.34920287 0.70400006
-0.57440102 0.34920287 0.70400006
-0.57220036 0.34920287 0.70400006
-0.56999969 0.34920287 0.70400006
-0.56779903 0.34920287 0.70400006
-0.56559831 0.34920287 0.70400006
-0.56339765 0.34920287 0.70400006
-0.56119698 0.34920287 0.70400006
-0.55979031 0.34969887 0.70500004
-0.55837739 0.3501949 0.70600003
-0.55617046 0.3501949 0.70600003
-0.55474818 0.35069093 0.70700002
-0.55331963 0.35118693 0.708
-0.55110645 0.35118693 0.708
-0.54966855 0.35168299 0.70900005
-0.54822439 0.35217902 0.71000004
-0.54600495 0.35217902 0.71000004
-0.54378551 0.35217902 0.71000004
-0.54232883 0.35267502 0.71100003
-0.5401063 0.35267502 0.71100003
-0.5378837 0.35267502 0.71100003
-0.5364145 0.35317105 0.71200001
-0.53418881 0.35317105 0.71200001
-0.53196311 0.35317105 0.71200001
-0.52973747 0.35317105 0.71200001
-0.52751178 0.35317105 0.71200001
-0.52528608 0.35317105 0.71200001
-0.52306038 0.35317105 0.71200001
-0.52083468 0.35317105 0.71200001
-0.51860899 0.35317105 0.71200001
-0.51710862 0.35366711 0.71300006
-0.51487982 0.35366711 0.71300006
-0.51336998 0.35416314 0.71400005
-0.51113802 0.35416314 0.71400005
-0.50890613 0.35416314 0.71400005
-0.50667417 0.35416314 0.71400005
-0.50373572 0.35366711 0.71300006
-0.50080353 0.35317105 0.71200001
-0.4985778 0.35317105 0.71200001
-0.49635214 0.35317105 0.71200001
-0.49343246 0.35267502 0.71100003
-0.49120989 0.35267502 0.71100003
-0.48829955 0.35217902 0.71000004
-0.48608011 0.35217902 0.71000004
-0.48386067 0.35217902 0.71000004
-0.48164123 0.35217902 0.71000004
-0.47942179 0.35217902 0.71000004
-0.47720239 0.35217902 0.71000004
-0.47498295 0.35217902 0.71000004
-0.47276351 0.35217902 0.71000004
-0.47054407 0.35217902 0.71000004
-0.46898425 0.35267502 0.71100003
-0.46676168 0.35267502 0.71100003
-0.46519247 0.35317105 0.71200001
-0.46296677 0.35317105 0.71200001
-0.46074107 0.35317105 0.71200001
-0.4591594 0.35366711 0.71300006
-0.45757145 0.35416314 0.71400005
-0.45533952 0.35416314 0.71400005
-0.45310757 0.35416314 0.71400005
-0.45087564 0.35416314 0.71400005
-0.44864368 0.35416314 0.71400005
-0.44641176 0.35416314 0.71400005
-0.4448019 0.35465914 0.71500003
-0.44256678 0.35465914 0.71500003
-0.44033173 0.35465914 0.71500003
-0.43748394 0.35416314 0.71400005
-0.43525201 0.35416314 0.71400005
-0.43302006 0.35416314 0.71400005
-0.43078813 0.35416314 0.71400005
-0.4285562 0.35416314 0.71400005
-0.42632425 0.35416314 0.71400005
-0.42409232 0.35416314 0.71400005
-0.42186037 0.35416314 0.71400005
-0.41962844 0.35416314 0.71400005
-0.41739649 0.35416314 0.71400005
-0.41516456 0.35416314 0.71400005
-0.4129326 0.35416314 0.71400005
-0.41070068 0.35416314 0.71400005
-0.40846872 0.35416314 0.71400005
-0.4062368 0.35416314 0.71400005
-0.40400484 0.35416314 0.71400005
-0.40177292 0.35416314 0.71400005
-0.39954096 0.35416314 0.71400005
-0.39786547 0.35465914 0.71500003
-0.39563042 0.35465914 0.71500003
-0.3933953 0.35465914 0.71500003
-0.3917073 0.35515517 0.71600002
-0.38946912 0.35515517 0.71600002
-0.38723093 0.35515517 0.71600002
-0.38499275 0.35515517 0.71600002
-0.38275453 0.35515517 0.71600002
-0.38051635 0.35515517 0.71600002
-0.37827817 0.35515517 0.71600002
-0.37603998 0.35515517 0.71600002
-0.37380177 0.35515517 0.71600002
-0.37156358 0.35515517 0.71600002
-0.3693254 0.35515517 0.71600002
-0.36657453 0.35465914 0.71500003
-0.36382991 0.35416314 0.71400005
-0.36159796 0.35416314 0.71400005
-0.3588627 0.35366711 0.71300006
-0.3561337 0.35317105 0.71200001
-0.35390797 0.35317105 0.71200001
-0.35118836 0.35267502 0.71100003
-0.34847501 0.35217902 0.71000004
-0.34625557 0.35217902 0.71000004
-0.34403613 0.35217902 0.71000004
-0.34133527 0.35168299 0.70900005
-0.33911896 0.35168299 0.70900005
-0.33690265 0.35168299 0.70900005
-0.33468634 0.35168299 0.70900005
-0.33247003 0.35168299 0.70900005
-0.3307195 0.35217902 0.71000004
-0.32850006 0.35217902 0.71000004
-0.32628062 0.35217902 0.71000004
-0.32451761 0.35267502 0.71100003
-0.32229504 0.35267502 0.71100003
-0.32277352 0.3556512 0.71700001
-0.32053217 0.3556512 0.71700001
-0.31829086 0.3556512 0.71700001
-0.31604955 0.3556512 0.71700001
-0.31424591 0.35614723 0.71800005
-0.31200147 0.35614723 0.71800005
-0.30975702 0.35614723 0.71800005
-0.30794087 0.35664326 0.71900004
-0.30611846 0.35713929 0.72000003
-0.30386776 0.35713929 0.72000003
-0.30203596 0.35763529 0.72100002
-0.29978213 0.35763529 0.72100002
-0.29752833 0.35763529 0.72100002
-0.29568404 0.35813135 0.72200006
-0.29383349 0.35862738 0.72300005
-0.29197672 0.35912338 0.72400004
-0.2897135 0.35912338 0.72400004
-0.28745031 0.35912338 0.72400004
-0.2851871 0.35912338 0.72400004
-0.28292391 0.35912338 0.72400004
-0.28104836 0.35961941 0.72500002
-0.27878201 0.35961941 0.72500002
-0.27651569 0.35961941 0.72500002
-0.27424937 0.35961941 0.72500002
-0.27198306 0.35961941 0.72500002
-0.27008873 0.36011544 0.72600001
-0.26745039 0.35961941 0.72500002
-0.26518407 0.35961941 0.72500002
-0.26291773 0.35961941 0.72500002
-0.26065141 0.35961941 0.72500002
-0.25838506 0.35961941 0.72500002
-0.25647202 0.36011544 0.72600001
-0.25420254 0.36011544 0.72600001
-0.2519331 0.36011544 0.72600001
-0.24966365 0.36011544 0.72600001
-0.2473942 0.36011544 0.72600001
-0.24580003 0.3611075 0.72800004
-0.24352434 0.3611075 0.72800004
-0.24124864 0.3611075 0.72800004
-0.23897293 0.3611075 0.72800004
-0.23702236 0.36160353 0.72900003
-0.2350655 0.36209953 0.73000002
-0.23278356 0.36209953 0.73000002
-0.23050159 0.36209953 0.73000002
-0.22821964 0.36209953 0.73000002
-0.22593769 0.36209953 0.73000002
-0.22365573 0.36209953 0.73000002
-0.22167702 0.36259556 0.73100001
-0.21939194 0.36259556 0.73100001
-0.21710686 0.36259556 0.73100001
-0.21511567 0.36309162 0.73200005
-0.21311821 0.36358762 0.73300004
-0.21082686 0.36358762 0.73300004
-0.20853552 0.36358762 0.73300004
-0.20652555 0.36408365 0.73400003
-0.2042311 0.36408365 0.73400003
-0.20221175 0.36457968 0.73500001
-0.19991417 0.36457968 0.73500001
-0.19761658 0.36457968 0.73500001
-0.19558474 0.36507571 0.73600006
-0.19328403 0.36507571 0.73600006
-0.19098333 0.36507571 0.73600006
-0.18868262 0.36507571 0.73600006
-0.18638188 0.36507571 0.73600006
-0.18408117 0.36507571 0.73600006
-0.18178047 0.36507571 0.73600006
-0.17947975 0.36507571 0.73600006
-0.17717904 0.36507571 0.73600006
-0.17487833 0.36507571 0.73600006
-0.17257762 0.36507571 0.73600006
-0.17050827 0.36557174 0.73700005
-0.16820441 0.36557174 0.73700005
-0.16590057 0.36557174 0.73700005
-0.16359673 0.36557174 0.73700005
-0.16151175 0.36606777 0.73800004
-0.15898906 0.36557174 0.73700005
-0.15668523 0.36557174 0.73700005
-0.15438138 0.36557174 0.73700005
-0.15207754 0.36557174 0.73700005
-0.1497737 0.36557174 0.73700005
-0.14746986 0.36557174 0.73700005
-0.14516604 0.36557174 0.73700005
-0.14286219 0.36557174 0.73700005
-0.14055835 0.36557174 0.73700005
-0.13825451 0.36557174 0.73700005
-0.13613513 0.36606777 0.73800004
-0.13382818 0.36606777 0.73800004
-0.13152121 0.36606777 0.73800004
-0.1295644 0.3670598 0.74000001
-0.12725119 0.3670598 0.74000001
-0.12527566 0.36805189 0.74200004
-0.12295619 0.36805189 0.74200004
-0.12063672 0.36805189 0.74200004
-0.1184767 0.36854789 0.74300003
-0.1161541 0.36854789 0.74300003
-0.11383151 0.36854789 0.74300003
-0.11150892 0.36854789 0.74300003
-0.10918633 0.36854789 0.74300003
-0.10686374 0.36854789 0.74300003
-0.10454113 0.36854789 0.74300003
-0.10221854 0.36854789 0.74300003
-0.099895947 0.36854789 0.74300003
-0.097573355 0.36854789 0.74300003
-0.095250763 0.36854789 0.74300003
-0.092928156 0.36854789 0.74300003
-0.090483628 0.36805189 0.74200004
-0.088164158 0.36805189 0.74200004
-0.085844688 0.36805189 0.74200004
-0.083525226 0.36805189 0.74200004
-0.081205748 0.36805189 0.74200004
-0.078886285 0.36805189 0.74200004
-0.076463625 0.36755586 0.74100006
-0.074147284 0.36755586 0.74100006
-0.071733996 0.3670598 0.74000001
-0.069420777 0.3670598 0.74000001
-0.067107566 0.3670598 0.74000001
-0.064794347 0.3670598 0.74000001
-0.062481131 0.3670598 0.74000001
-0.060167916 0.3670598 0.74000001
-0.058480158 0.37102804 0.74800003
-0.056141932 0.37102804 0.74800003
-0.053731777 0.37053201 0.74700004
-0.051396675 0.37053201 0.74700004
-0.049061581 0.37053201 0.74700004
-0.046726484 0.37053201 0.74700004
-0.044391386 0.37053201 0.74700004
-0.042056285 0.37053201 0.74700004
-0.039721187 0.37053201 0.74700004
-0.037436139 0.37102804 0.74800003
-0.035144836 0.37152404 0.74900001
-0.032803483 0.37152404 0.74900001
-0.030462133 0.37152404 0.74900001
-0.028158329 0.3720201 0.75000006
-0.025813853 0.3720201 0.75000006
-0.023500668 0.37251613 0.75100005
-0.021153066 0.37251613 0.75100005
-0.018805465 0.37251613 0.75100005
-0.016479775 0.37301213 0.75200003
-0.014147836 0.37350816 0.75300002
-0.011793981 0.37350816 0.75300002
-0.0094401278 0.37350816 0.75300002
-0.0070768627 0.37301213 0.75200003
-0.0047261347 0.37301213 0.75200003
-0.0023754064 0.37301213 0.75200003
-2.464524e-05 0.37251613 0.75100005
0.0023229569 0.37251613 0.75100005
0.0046705594 0.37251613 0.75100005
0.0070181615 0.37251613 0.75100005
0.0093657644 0.37251613 0.75100005
0.011697769 0.3720201 0.75000006
0.014042245 0.3720201 0.75000006
0.016386723 0.3720201 0.75000006
0.018731199 0.3720201 0.75000006
0.021075675 0.3720201 0.75000006
0.023420151 0.3720201 0.75000006
0.025764629 0.3720201 0.75000006
0.028109105 0.3720201 0.75000006
0.03045358 0.3720201 0.75000006
0.032841787 0.37251613 0.75100005
0.035142533 0.3720201 0.75000006
0.037487008 0.3720201 0.75000006
0.039884593 0.37251613 0.75100005
0.042232197 0.37251613 0.75100005
0.044639159 0.37301213 0.75200003
0.046989888 0.37301213 0.75200003
0.049340617 0.37301213 0.75200003
0.051691342 0.37301213 0.75200003
0.054042075 0.37301213 0.75200003
0.0563928 0.37301213 0.75200003
0.05866541 0.37251613 0.75100005
0.061013017 0.37251613 0.75100005
0.063360617 0.37251613 0.75100005
0.065620728 0.3720201 0.75000006
0.067965202 0.3720201 0.75000006
0.070309676 0.3720201 0.75000006
0.072557278 0.37152404 0.74900001
0.07489863 0.37152404 0.74900001
0.077239975 0.37152404 0.74900001
0.079581335 0.37152404 0.74900001
0.082032062 0.3720201 0.75000006
0.084376536 0.3720201 0.75000006
0.086836644 0.37251613 0.75100005
0.08918424 0.37251613 0.75100005
0.09165372 0.37301213 0.75200003
0.094004452 0.37301213 0.75200003
0.096355177 0.37301213 0.75200003
0.09883716 0.37350816 0.75300002
0.10132539 0.37400419 0.75400001
0.10368238 0.37400419 0.75400001
0.10632064 0.37499624 0.75600004
0.10868387 0.37499624 0.75600004
0.1110471 0.37499624 0.75600004
0.11341033 0.37499624 0.75600004
0.11577357 0.37499624 0.75600004
0.1181368 0.37499624 0.75600004
0.12050003 0.37499624 0.75600004
0.12286326 0.37499624 0.75600004
0.1252265 0.37499624 0.75600004
0.12758972 0.37499624 0.75600004
0.12995297 0.37499624 0.75600004
0.13231619 0.37499624 0.75600004
0.13432312 0.37400419 0.75400001
0.1366801 0.37400419 0.75400001
0.13940588 0.37499624 0.75600004
0.14139406 0.37400419 0.75400001
0.14375104 0.37400419 0.75400001
0.14649558 0.37499624 0.75600004
0.14885882 0.37499624 0.75600004
0.15122205 0.37499624 0.75600004
0.15358527 0.37499624 0.75600004
0.15594852 0.37499624 0.75600004
0.15831175 0.37499624 0.75600004
0.16067497 0.37499624 0.75600004
0.16303821 0.37499624 0.75600004
0.16540144 0.37499624 0.75600004
0.16798659 0.37549227 0.75700003
0.17035294 0.37549227 0.75700003
0.1727193 0.37549227 0.75700003
0.17485437 0.37499624 0.75600004
0.1772176 0.37499624 0.75600004
0.17958082 0.37499624 0.75600004
0.18194407 0.37499624 0.75600004
0.18430731 0.37499624 0.75600004
0.18667053 0.37499624 0.75600004
0.18903376 0.37499624 0.75600004
0.191397 0.37499624 0.75600004
0.19376022 0.37499624 0.75600004
0.19560459 0.37400419 0.75400001
0.19796157 0.37400419 0.75400001
0.20031857 0.37400419 0.75400001
0.20267555 0.37400419 0.75400001
0.20503253 0.37400419 0.75400001
0.2073895 0.37400419 0.75400001
0.20974649 0.37400419 0.75400001
0.21210347 0.37400419 0.75400001
0.21502931 0.37499624 0.75600004
0.21739255 0.37499624 0.75600004
0.21975577 0.37499624 0.75600004
0.222119 0.37499624 0.75600004
0.22477916 0.37549227 0.75700003
0.22714554 0.37549227 0.75700003
0.23193739 0.37946048 0.76500005
0.23432876 0.37946048 0.76500005
0.23672011 0.37946048 0.76500005
0.23911148 0.37946048 0.76500005
0.24150285 0.37946048 0.76500005
0.24389422 0.37946048 0.76500005
0.24628557 0.37946048 0.76500005
0.24867694 0.37946048 0.76500005
0.25106829 0.37946048 0.76500005
0.25345966 0.37946048 0.76500005
0.25585103 0.37946048 0.76500005
0.25824243 0.37946048 0.76500005
0.2606338 0.37946048 0.76500005
0.26302513 0.37946048 0.76500005
0.26576346 0.37995651 0.76600003
0.26815796 0.37995651 0.76600003
0.27055243 0.37995651 0.76600003
0.27330324 0.38045254 0.76700002
0.27570087 0.38045254 0.76700002
0.27809849 0.38045254 0.76700002
0.28086179 0.38094854 0.76800001
0.28326255 0.38094854 0.76800001
0.28566331 0.38094854 0.76800001
0.28843915 0.3814446 0.76900005
0.29084301 0.3814446 0.76900005
0.29324687 0.3814446 0.76900005
0.2960352 0.38194063 0.77000004
0.31168681 0.38342872 0.77300006
0.31410322 0.38342872 0.77300006
0.31651959 0.38342872 0.77300006
0.31893596 0.38342872 0.77300006
0.32093659 0.38293266 0.77200001
0.32334983 0.38293266 0.77200001
0.32576308 0.38293266 0.77200001
0.32817632 0.38293266 0.77200001
0.33058956 0.38293266 0.77200001
0.33300284 0.38293266 0.77200001
0.33541608 0.38293266 0.77200001
0.33782932 0.38293266 0.77200001
0.34024259 0.38293266 0.77200001
0.34265584 0.38293266 0.77200001
0.34506908 0.38293266 0.77200001
0.34748232 0.38293266 0.77200001
0.34989557 0.38293266 0.77200001
0.35139611 0.38194063 0.77000004
0.3538031 0.38194063 0.77000004
0.35621008 0.38194063 0.77000004
0.3586171 0.38194063 0.77000004
0.36102408 0.38194063 0.77000004
0.36343107 0.38194063 0.77000004
0.36583808 0.38194063 0.77000004
0.3682451 0.38194063 0.77000004
0.37065208 0.38194063 0.77000004
0.37305906 0.38194063 0.77000004
0.3764413 0.38293266 0.77200001
0.3793453 0.38342872 0.77300006
0.38176167 0.38342872 0.77300006
0.38517201 0.38442075 0.77500004
0.38809478 0.38491678 0.77600002
0.39052054 0.38491678 0.77600002
0.39294627 0.38491678 0.77600002
0.39588153 0.38541278 0.77700001
0.39831039 0.38541278 0.77700001
0.40073928 0.38541278 0.77700001
0.40316814 0.38541278 0.77700001
0.40559703 0.38541278 0.77700001
0.40802589 0.38541278 0.77700001
0.41045478 0.38541278 0.77700001
0.41288364 0.38541278 0.77700001
0.41477802 0.38491678 0.77600002
0.41666615 0.38442075 0.77500004
0.41908878 0.38442075 0.77500004
0.42151141 0.38442075 0.77500004
0.42393401 0.38442075 0.77500004
0.42690676 0.38491678 0.77600002
0.42933252 0.38491678 0.77600002
0.43175828 0.38491678 0.77600002
0.43474352 0.38541278 0.77700001
0.43717244 0.38541278 0.77700001
0.43960133 0.38541278 0.77700001
0.44316801 0.38640487 0.77900004
0.44617516 0.38690087 0.78000003
0.44861341 0.38690087 0.78000003
0.45162991 0.3873969 0.78100002
0.45407128 0.3873969 0.78100002
0.45651269 0.3873969 0.78100002
0.45954174 0.38789296 0.78200006
0.46198624 0.38789296 0.78200006
0.46443075 0.38789296 0.78200006
0.46687526 0.38789296 0.78200006
0.46931976 0.38789296 0.78200006
0.47176427 0.38789296 0.78200006
0.47360232 0.3873969 0.78100002
0.47543418 0.38690087 0.78000003
0.47787243 0.38690087 0.78000003
0.48031071 0.38690087 0.78000003
0.48213005 0.38640487 0.77900004
0.48456517 0.38640487 0.77900004
0.48700029 0.38640487 0.77900004
0.48943543 0.38640487 0.77900004
0.492502 0.38690087 0.78000003
0.49494025 0.38690087 0.78000003
0.49737853 0.38690087 0.78000003
0.49981678 0.38690087 0.78000003
0.50225502 0.38690087 0.78000003
0.50469327 0.38690087 0.78000003
0.50778168 0.3873969 0.78100002
0.51022309 0.3873969 0.78100002
0.51266444 0.3873969 0.78100002
0.51510584 0.3873969 0.78100002
0.51820993 0.38789296 0.78200006
0.5199886 0.3873969 0.78100002
0.52242994 0.3873969 0.78100002
0.52487135 0.3873969 0.78100002
0.5273127 0.3873969 0.78100002
0.53382397 0.39037308 0.78700006
0.53628409 0.39037308 0.78700006
0.53874421 0.39037308 0.78700006
0.54120433 0.39037308 0.78700006
0.54366446 0.39037308 0.78700006
0.54543066 0.38987702 0.78600001
0.54788768 0.38987702 0.78600001
0.55034471 0.38987702 0.78600001
0.55350506 0.39037308 0.78700006
0.55596519 0.39037308 0.78700006
0.55842537 0.39037308 0.78700006
0.56088549 0.39037308 0.78700006
0.56334561 0.39037308 0.78700006
0.56580573 0.39037308 0.78700006
0.56826586 0.39037308 0.78700006
0.57072604 0.39037308 0.78700006
0.57318616 0.39037308 0.78700006
0.57637769 0.39086911 0.78800005
0.57884097 0.39086911 0.78800005
0.58130425 0.39086911 0.78800005
0.5845083 0.39136514 0.78900003
0.58697468 0.39136514 0.78900003
0.58944106 0.39136514 0.78900003
0.59415811 0.39285323 0.79200006
0.59738719 0.39334923 0.79300004
0.59986603 0.39334923 0.79300004
0.60310453 0.39384526 0.79400003
0.60711199 0.39483732 0.79600006
0.60960025 0.39483732 0.79600006
0.61285752 0.39533335 0.79700005
0.61612099 0.39582938 0.79800004
0.61939067 0.39632538 0.79900002
0.62188834 0.39632538 0.79900002
0.62438595 0.39632538 0.79900002
0.62845284 0.39731747 0.80100006
0.63095671 0.39731747 0.80100006
0.63346064 0.39731747 0.80100006
0.63596451 0.39731747 0.80100006
0.63846844 0.39731747 0.80100006
0.64097232 0.39731747 0.80100006
0.64347619 0.39731747 0.80100006
0.64598012 0.39731747 0.80100006
0.64848399 0.39731747 0.80100006
0.65098792 0.39731747 0.80100006
0.65186012 0.39632538 0.79900002
0.65435773 0.39632538 0.79900002
0.65521121 0.39533335 0.79700005
0.65770262 0.39533335 0.79700005
0.66019398 0.39533335 0.79700005
0.66185391 0.39483732 0.79600006
0.66434222 0.39483732 0.79600006
0.66683048 0.39483732 0.79600006
0.6693188 0.39483732 0.79600006
0.67180705 0.39483732 0.79600006
0.6726011 0.39384526 0.79400003
0.6750831 0.39384526 0.79400003
0.6775651 0.39384526 0.79400003
0.68004715 0.39384526 0.79400003
0.68252915 0.39384526 0.79400003
0.68673664 0.39483732 0.79600006
0.68922496 0.39483732 0.79600006
0.69258219 0.39533335 0.79700005
0.69594568 0.39582938 0.79800004
0.69931543 0.39632538 0.79900002
0.70181304 0.39632538 0.79900002
0.70695519 0.39781347 0.80200005
0.71034682 0.3983095 0.80300003
0.71285701 0.3983095 0.80300003
0.71625799 0.39880553 0.80400002
0.7205593 0.39979759 0.80600005
0.72307879 0.39979759 0.80600005
0.7264986 0.40029362 0.80700004
0.73173136 0.40178171 0.81000006
0.73607635 0.40277374 0.81200004
0.73861468 0.40277374 0.81200004
0.74206573 0.40326977 0.81300002
0.74735481 0.40475786 0.81600004
0.74990559 0.40475786 0.81600004
0.75522274 0.40624595 0.81900007
0.75870818 0.40674198 0.82000005
0.76127148 0.40674198 0.82000005
0.76476628 0.40723798 0.82100004
0.76733267 0.40723798 0.82100004
0.76989907 0.40723798 0.82100004
0.77246553 0.40723798 0.82100004
0.77314395 0.40624595 0.81900007
0.77570409 0.40624595 0.81900007
0.77826428 0.40624595 0.81900007
0.77891761 0.40525389 0.81700003
0.78147155 0.40525389 0.81700003
0.7830658 0.40475786 0.81600004
0.78272831 0.40326977 0.81300002
0.78526968 0.40326977 0.81300002
0.7878111 0.40326977 0.81300002
0.78938037 0.40277374 0.81200004
0.79191869 0.40277374 0.81200004
0.79347861 0.40227771 0.81100005
0.79503226 0.40178171 0.81000006
0.79756433 0.40178171 0.81000006
0.79812074 0.40078962 0.80800003
0.79965568 0.40029362 0.80700004
0.80217832 0.40029362 0.80700004
0.80170947 0.39880553 0.80400002
0.80322248 0.3983095 0.80300003
0.80573261 0.3983095 0.80300003
-0.68294036 0.34291795 0.68700004
-0.68079281 0.34291795 0.68700004
-0.67963314 0.34341708 0.68800002
-0.67748249 0.34341708 0.68800002
-0.67631334 0.34391624 0.68900001
-0.67415959 0.34391624 0.68900001
-0.67200577 0.34391624 0.68900001
-0.66985202 0.34391624 0.68900001
-0.66866732 0.3444154 0.69000006
-0.6674763 0.34491456 0.69100004
-0.66435343 0.3444154 0.69000006
-0.66219652 0.3444154 0.69000006
-0.6600396 0.3444154 0.69000006
-0.65788269 0.3444154 0.69000006
-0.65572578 0.3444154 0.69000006
-0.65925205 0.34741032 0.69600004
-0.65707642 0.34741032 0.69600004
-0.65490073 0.34741032 0.69600004
-0.65366286 0.34790945 0.69700003
-0.65148407 0.34790945 0.69700003
-0.64930528 0.34790945 0.69700003
-0.6480549 0.34840861 0.69800001
-0.64587295 0.34840861 0.69800001
-0.64369106 0.34840861 0.69800001
-0.64150912 0.34840861 0.69800001
-0.64115912 0.34940693 0.70000005
-0.63897097 0.34940693 0.70000005
-0.63678277 0.34940693 0.70000005
-0.63459462 0.34940693 0.70000005
-0.63240641 0.34940693 0.70000005
-0.62931794 0.34890777 0.69900006
-0.62713283 0.34890777 0.69900006
-0.62494779 0.34890777 0.69900006
-0.62187177 0.34840861 0.69800001
-0.61968982 0.34840861 0.69800001
-0.61750793 0.34840861 0.69800001
-0.61444443 0.34790945 0.69700003
-0.61226565 0.34790945 0.69700003
-0.61008686 0.34790945 0.69700003
-0.60790807 0.34790945 0.69700003
-0.60572928 0.34790945 0.69700003
-0.60355049 0.34790945 0.69700003
-0.60137165 0.34790945 0.69700003
-0.59919286 0.34790945 0.69700003
-0.59701407 0.34790945 0.69700003
-0.5956887 0.34840861 0.69800001
-0.59350675 0.34840861 0.69800001
-0.59132481 0.34840861 0.69800001
-0.58914292 0.34840861 0.69800001
-0.58696097 0.34840861 0.69800001
-0.58561689 0.34890777 0.69900006
-0.58343184 0.34890777 0.69900006
-0.58207834 0.34940693 0.70000005
-0.57906175 0.34890777 0.69900006
-0.57687664 0.34890777 0.69900006
-0.57469159 0.34890777 0.69900006
-0.57250655 0.34890777 0.69900006
-0.56950557 0.34840861 0.69800001
-0.56732363 0.34840861 0.69800001
-0.56514168 0.34840861 0.69800001
-0.56376636 0.34890777 0.69900006
-0.56158131 0.34890777 0.69900006
-0.55939627 0.34890777 0.69900006
-0.55721122 0.34890777 0.69900006
-0.55502617 0.34890777 0.69900006
-0.55363202 0.34940693 0.70000005
-0.55144382 0.34940693 0.70000005
-0.5500403 0.34990609 0.70100003
-0.54863048 0.35040522 0.70200002
-0.54643607 0.35040522 0.70200002
-0.54424167 0.35040522 0.70200002
-0.54281932 0.35090438 0.70300001
-0.54062182 0.35090438 0.70300001
-0.53842425 0.35090438 0.70300001
-0.53622669 0.35090438 0.70300001
-0.53402913 0.35090438 0.70300001
-0.53258806 0.35140353 0.70400006
-0.5303874 0.35140353 0.70400006
-0.52893698 0.35190269 0.70500004
-0.52673316 0.35190269 0.70500004
-0.52527338 0.35240182 0.70600003
-0.52306646 0.35240182 0.70600003
-0.52085954 0.35240182 0.70600003
-0.51938719 0.35290098 0.70700002
-0.51717716 0.35290098 0.70700002
-0.51496708 0.35290098 0.70700002
-0.51275706 0.35290098 0.70700002
-0.51126909 0.35340014 0.708
-0.50905591 0.35340014 0.708
-0.50684273 0.35340014 0.708
-0.50462955 0.35340014 0.708
-0.50241637 0.35340014 0.708
-0.4994967 0.35290098 0.70700002
-0.49658325 0.35240182 0.70600003
-0.49437633 0.35240182 0.70600003
-0.49147227 0.35190269 0.70500004
-0.4885745 0.35140353 0.70400006
-0.48637381 0.35140353 0.70400006
-0.48417309 0.35140353 0.70400006
-0.4819724 0.35140353 0.70400006
-0.47977173 0.35140353 0.70400006
-0.47757104 0.35140353 0.70400006
-0.47537038 0.35140353 0.70400006
-0.47316968 0.35140353 0.70400006
-0.47096902 0.35140353 0.70400006
-0.46876833 0.35140353 0.70400006
-0.46656764 0.35140353 0.70400006
-0.46502656 0.35190269 0.70500004
-0.46282277 0.35190269 0.70500004
-0.4612723 0.35240182 0.70600003
-0.4597156 0.35290098 0.70700002
-0.45750555 0.35290098 0.70700002
-0.45593947 0.35340014 0.708
-0.45436716 0.3538993 0.70900005
-0.45215085 0.3538993 0.70900005
-0.44993454 0.3538993 0.70900005
-0.44771823 0.3538993 0.70900005
-0.44613028 0.35439846 0.71000004
-0.44391084 0.35439846 0.71000004
-0.4416914 0.35439846 0.71000004
-0.43947193 0.35439846 0.71000004
-0.43725249 0.35439846 0.71000004
-0.43503305 0.35439846 0.71000004
-0.43281361 0.35439846 0.71000004
-0.42998773 0.3538993 0.70900005
-0.42777142 0.3538993 0.70900005
-0.42555511 0.3538993 0.70900005
-0.4233388 0.3538993 0.70900005
-0.42112249 0.3538993 0.70900005
-0.41890618 0.3538993 0.70900005
-0.41668987 0.3538993 0.70900005
-0.41447356 0.3538993 0.70900005
-0.41225725 0.3538993 0.70900005
-0.41004094 0.3538993 0.70900005
-0.40782461 0.3538993 0.70900005
-0.4056083 0.3538993 0.70900005
-0.4062368 0.35639507 0.71400005
-0.40400484 0.35639507 0.71400005
-0.40177292 0.35639507 0.71400005
-0.39954096 0.35639507 0.71400005
-0.39786547 0.35689422 0.71500003
-0.39563042 0.35689422 0.71500003
-0.3933953 0.35689422 0.71500003
-0.3917073 0.35739335 0.71600002
-0.38946912 0.35739335 0.71600002
-0.38723093 0.35739335 0.71600002
-0.38499275 0.35739335 0.71600002
-0.38275453 0.35739335 0.71600002
-0.38051635 0.35739335 0.71600002
-0.37827817 0.35739335 0.71600002
-0.37603998 0.35739335 0.71600002
-0.37380177 0.35739335 0.71600002
-0.37156358 0.35739335 0.71600002
-0.3693254 0.35739335 0.71600002
-0.36657453 0.35689422 0.71500003
-0.36382991 0.35639507 0.71400005
-0.36159796 0.35639507 0.71400005
-0.3588627 0.35589591 0.71300006
-0.3561337 0.35539675 0.71200001
-0.35390797 0.35539675 0.71200001
-0.35118836 0.35489759 0.71100003
-0.34847501 0.35439846 0.71000004
-0.34625557 0.35439846 0.71000004
-0.34403613 0.35439846 0.71000004
-0.34133527 0.3538993 0.70900005
-0.33911896 0.3538993 0.70900005
-0.33690265 0.3538993 0.70900005
-0.33468634 0.3538993 0.70900005
-0.33247003 0.3538993 0.70900005
-0.3307195 0.35439846 0.71000004
-0.32850006 0.35439846 0.71000004
-0.32628062 0.35439846 0.71000004
-0.32451761 0.35489759 0.71100003
-0.32229504 0.35489759 0.71100003
-0.32007247 0.35489759 0.71100003
-0.3178499 0.35489759 0.71100003
-0.31562737 0.35489759 0.71100003
-0.3134048 0.35489759 0.71100003
-0.31161991 0.35539675 0.71200001
-0.30939421 0.35539675 0.71200001
-0.30716851 0.35539675 0.71200001
-0.30579939 0.35639507 0.71400005
-0.30356747 0.35639507 0.71400005
-0.30133551 0.35639507 0.71400005
-0.29952249 0.35689422 0.71500003
-0.29770321 0.35739335 0.71600002
-0.29546502 0.35739335 0.71600002
-0.29363635 0.35789251 0.71700001
-0.29180145 0.35839167 0.71800005
-0.28955701 0.35839167 0.71800005
-0.28731257 0.35839167 0.71800005
-0.28546515 0.35889083 0.71900004
-0.28321758 0.35889083 0.71900004
-0.28097001 0.35889083 0.71900004
-0.27872244 0.35889083 0.71900004
-0.27685937 0.35938996 0.72000003
-0.2746087 0.35938996 0.72000003
-0.272358 0.35938996 0.72000003
-0.2701073 0.35938996 0.72000003
-0.2678566 0.35938996 0.72000003
-0.265237 0.35889083 0.71900004
-0.26298946 0.35889083 0.71900004
-0.26074189 0.35889083 0.71900004
-0.25849429 0.35889083 0.71900004
-0.25624672 0.35889083 0.71900004
-0.25399914 0.35889083 0.71900004
-0.25175157 0.35889083 0.71900004
-0.24985102 0.35938996 0.72000003
-0.24760033 0.35938996 0.72000003
-0.24534963 0.35938996 0.72000003
-0.24309893 0.35938996 0.72000003
-0.24118274 0.35988912 0.72100002
-0.23892893 0.35988912 0.72100002
-0.2366751 0.35988912 0.72100002
-0.23474643 0.36038831 0.72200006
-0.23248947 0.36038831 0.72200006
-0.23023251 0.36038831 0.72200006
-0.22797556 0.36038831 0.72200006
-0.22603124 0.36088744 0.72300005
-0.22346167 0.36038831 0.72200006
-0.22120473 0.36038831 0.72200006
-0.21925102 0.36088744 0.72300005
-0.21699095 0.36088744 0.72300005
-0.21502787 0.3613866 0.72400004
-0.21305855 0.36188573 0.72500002
-0.21079221 0.36188573 0.72500002
-0.20852588 0.36188573 0.72500002
-0.20654404 0.36238489 0.72600001
-0.20427459 0.36238489 0.72600001
-0.20200513 0.36238489 0.72600001
-0.20028593 0.3633832 0.72800004
-0.19801024 0.3633832 0.72800004
-0.19573453 0.3633832 0.72800004
-0.19372456 0.36388236 0.72900003
-0.19144574 0.36388236 0.72900003
-0.1891669 0.36388236 0.72900003
-0.18688807 0.36388236 0.72900003
-0.18460922 0.36388236 0.72900003
-0.1823304 0.36388236 0.72900003
-0.18005158 0.36388236 0.72900003
-0.17777273 0.36388236 0.72900003
-0.17549391 0.36388236 0.72900003
-0.17321508 0.36388236 0.72900003
-0.17117073 0.36438149 0.73000002
-0.16888878 0.36438149 0.73000002
-0.1666068 0.36438149 0.73000002
-0.16432485 0.36438149 0.73000002
-0.1620429 0.36438149 0.73000002
-0.15976094 0.36438149 0.73000002
-0.15747899 0.36438149 0.73000002
-0.15519702 0.36438149 0.73000002
-0.15291506 0.36438149 0.73000002
-0.15042676 0.36388236 0.72900003
-0.14814794 0.36388236 0.72900003
-0.14586911 0.36388236 0.72900003
-0.14359027 0.36388236 0.72900003
-0.14286219 0.36787558 0.73700005
-0.14055835 0.36787558 0.73700005
-0.13825451 0.36787558 0.73700005
-0.13613513 0.36837474 0.73800004
-0.13382818 0.36837474 0.73800004
-0.13152121 0.36837474 0.73800004
-0.1295644 0.36937302 0.74000001
-0.12725119 0.36937302 0.74000001
-0.12527566 0.37037134 0.74200004
-0.12295619 0.37037134 0.74200004
-0.12063672 0.37037134 0.74200004
-0.1184767 0.3708705 0.74300003
-0.1161541 0.3708705 0.74300003
-0.11383151 0.3708705 0.74300003
-0.11150892 0.3708705 0.74300003
-0.10918633 0.3708705 0.74300003
-0.10686374 0.3708705 0.74300003
-0.10454113 0.3708705 0.74300003
-0.10221854 0.3708705 0.74300003
-0.099895947 0.3708705 0.74300003
-0.097573355 0.3708705 0.74300003
-0.095250763 0.3708705 0.74300003
-0.092928156 0.3708705 0.74300003
-0.090483628 0.37037134 0.74200004
-0.088164158 0.37037134 0.74200004
-0.085844688 0.37037134 0.74200004
-0.083525226 0.37037134 0.74200004
-0.081205748 0.37037134 0.74200004
-0.078886285 0.37037134 0.74200004
-0.076463625 0.36987218 0.74100006
-0.074147284 0.36987218 0.74100006
-0.071733996 0.36937302 0.74000001
-0.069420777 0.36937302 0.74000001
-0.067107566 0.36937302 0.74000001
-0.064794347 0.36937302 0.74000001
-0.062481131 0.36937302 0.74000001
-0.060086608 0.36887386 0.73900002
-0.057776518 0.36887386 0.73900002
-0.055466425 0.36887386 0.73900002
-0.053156335 0.36887386 0.73900002
-0.050846241 0.36887386 0.73900002
-0.048536155 0.36887386 0.73900002
-0.046163514 0.36837474 0.73800004
-0.04385655 0.36837474 0.73800004
-0.041549582 0.36837474 0.73800004
-0.039242618 0.36837474 0.73800004
-0.036935654 0.36837474 0.73800004
-0.034675609 0.36887386 0.73900002
-0.03236552 0.36887386 0.73900002
-0.030096099 0.36937302 0.74000001
-0.027857974 0.37037134 0.74200004
-0.025504086 0.36987218 0.74100006
-0.023187743 0.36987218 0.74100006
-0.020899568 0.37037134 0.74200004
-0.0185801 0.37037134 0.74200004
-0.016282544 0.3708705 0.74300003
-0.013997528 0.37186882 0.74500006
-0.011684343 0.37236795 0.74600005
-0.0093523711 0.37236795 0.74600005
-0.0070203985 0.37236795 0.74600005
-0.0046884264 0.37236795 0.74600005
-0.002353295 0.37186882 0.74500006
-2.4382707e-05 0.3708705 0.74300003
0.0022982117 0.3708705 0.74300003
0.0046208063 0.3708705 0.74300003
0.0069620912 0.37186882 0.74500006
0.0092909383 0.37186882 0.74500006
0.01158859 0.3708705 0.74300003
0.013911184 0.3708705 0.74300003
0.016233779 0.3708705 0.74300003
0.018556373 0.3708705 0.74300003
0.020878969 0.3708705 0.74300003
0.023201562 0.3708705 0.74300003
0.025524158 0.3708705 0.74300003
0.027846754 0.3708705 0.74300003
0.030250557 0.37186882 0.74500006
0.032579403 0.37186882 0.74500006
0.03490825 0.37186882 0.74500006
0.037237097 0.37186882 0.74500006
0.039565943 0.37186882 0.74500006
0.04189479 0.37186882 0.74500006
0.044282999 0.37236795 0.74600005
0.046677455 0.37286711 0.74700004
0.049012553 0.37286711 0.74700004
0.051278912 0.37236795 0.74600005
0.053610887 0.37236795 0.74600005
0.05594286 0.37236795 0.74600005
0.058196712 0.37186882 0.74500006
0.060525563 0.37186882 0.74500006
0.062854409 0.37186882 0.74500006
0.06518326 0.37186882 0.74500006
0.06733086 0.3708705 0.74300003
0.069653451 0.3708705 0.74300003
0.071976051 0.3708705 0.74300003
0.074198648 0.37037134 0.74200004
0.076518111 0.37037134 0.74200004
0.078837581 0.37037134 0.74200004
0.081485182 0.37186882 0.74500006
0.083814025 0.37186882 0.74500006
0.086258501 0.37236795 0.74600005
0.088590473 0.37236795 0.74600005
0.090922445 0.37236795 0.74600005
0.093379423 0.37286711 0.74700004
0.095714517 0.37286711 0.74700004
0.098180875 0.37336624 0.74800003
0.10065348 0.3738654 0.74900001
0.10299484 0.3738654 0.74900001
0.10533618 0.3738654 0.74900001
0.1078213 0.37436455 0.75000006
0.11016577 0.37436455 0.75000006
0.11251025 0.37436455 0.75000006
0.11485474 0.37436455 0.75000006
0.11719921 0.37436455 0.75000006
0.11954369 0.37436455 0.75000006
0.12188816 0.37436455 0.75000006
0.12423263 0.37436455 0.75000006
0.12640832 0.3738654 0.74900001
0.12874968 0.3738654 0.74900001
0.13109104 0.3738654 0.74900001
0.13325424 0.37336624 0.74800003
0.13559246 0.37336624 0.74800003
0.13940588 0.37735948 0.75600004
0.14139406 0.37636116 0.75400001
0.14375104 0.37636116 0.75400001
0.14649558 0.37735948 0.75600004
0.14885882 0.37735948 0.75600004
0.15122205 0.37735948 0.75600004
0.15358527 0.37735948 0.75600004
0.15594852 0.37735948 0.75600004
0.15831175 0.37735948 0.75600004
0.16067497 0.37735948 0.75600004
0.16303821 0.37735948 0.75600004
0.16540144 0.37735948 0.75600004
0.16798659 0.37785861 0.75700003
0.17035294 0.37785861 0.75700003
0.1727193 0.37785861 0.75700003
0.17485437 0.37735948 0.75600004
0.1772176 0.37735948 0.75600004
0.17958082 0.37735948 0.75600004
0.18194407 0.37735948 0.75600004
0.18430731 0.37735948 0.75600004
0.18667053 0.37735948 0.75600004
0.18903376 0.37735948 0.75600004
0.191397 0.37735948 0.75600004
0.19376022 0.37735948 0.75600004
0.19560459 0.37636116 0.75400001
0.19796157 0.37636116 0.75400001
0.20031857 0.37636116 0.75400001
0.20267555 0.37636116 0.75400001
0.20503253 0.37636116 0.75400001
0.2073895 0.37636116 0.75400001
0.20974649 0.37636116 0.75400001
0.21210347 0.37636116 0.75400001
0.21502931 0.37735948 0.75600004
0.21739255 0.37735948 0.75600004
0.21975577 0.37735948 0.75600004
0.222119 0.37735948 0.75600004
0.22477916 0.37785861 0.75700003
0.22714554 0.37785861 0.75700003
0.2295119 0.37785861 0.75700003
0.23187825 0.37785861 0.75700003
0.23424461 0.37785861 0.75700003
0.23661096 0.37785861 0.75700003
0.23897733 0.37785861 0.75700003
0.24134368 0.37785861 0.75700003
0.2433881 0.37735948 0.75600004
0.24575134 0.37735948 0.75600004
0.24844275 0.37785861 0.75700003
0.2508091 0.37785861 0.75700003
0.25317547 0.37785861 0.75700003
0.25554183 0.37785861 0.75700003
0.2579082 0.37785861 0.75700003
0.26027456 0.37785861 0.75700003
0.26264089 0.37785861 0.75700003
0.26500726 0.37785861 0.75700003
0.26737362 0.37785861 0.75700003
0.2700963 0.37835777 0.75800002
0.2724658 0.37835777 0.75800002
0.27483526 0.37835777 0.75800002
0.27757046 0.37885696 0.75900006
0.28031191 0.37935609 0.76000005
0.28268766 0.37935609 0.76000005
0.28506339 0.37935609 0.76000005
0.28781733 0.37985525 0.76100004
0.29019618 0.37985525 0.76100004
0.29295951 0.38035437 0.76200002
0.301287 0.38185185 0.76500005
0.30367836 0.38185185 0.76500005
0.30526951 0.38085353 0.76300001
0.30765465 0.38085353 0.76300001
0.31003976 0.38085353 0.76300001
0.31242487 0.38085353 0.76300001
0.31480998 0.38085353 0.76300001
0.31719512 0.38085353 0.76300001
0.31958023 0.38085353 0.76300001
0.32196534 0.38085353 0.76300001
0.32435045 0.38085353 0.76300001
0.32673556 0.38085353 0.76300001
0.32912067 0.38085353 0.76300001
0.33150578 0.38085353 0.76300001
0.33389089 0.38085353 0.76300001
0.33627602 0.38085353 0.76300001
0.33866113 0.38085353 0.76300001
0.34194022 0.38185185 0.76500005
0.34433159 0.38185185 0.76500005
0.34672296 0.38185185 0.76500005
0.3491143 0.38185185 0.76500005
0.35150567 0.38185185 0.76500005
0.35297179 0.38085353 0.76300001
0.3553569 0.38085353 0.76300001
0.35774204 0.38085353 0.76300001
0.36012715 0.38085353 0.76300001
0.36251226 0.38085353 0.76300001
0.3648974 0.38085353 0.76300001
0.36728251 0.38085353 0.76300001
0.36966762 0.38085353 0.76300001
0.37205273 0.38085353 0.76300001
0.37443784 0.38085353 0.76300001
0.37781069 0.38185185 0.76500005
0.38069907 0.38235101 0.76600003
0.38359368 0.38285014 0.76700002
0.38599131 0.38285014 0.76700002
0.38889527 0.3833493 0.76800001
0.39129603 0.3833493 0.76800001
0.39318416 0.38285014 0.76700002
0.39558175 0.38285014 0.76700002
0.39797938 0.38285014 0.76700002
0.40037701 0.38285014 0.76700002
0.40329972 0.3833493 0.76800001
0.40570047 0.3833493 0.76800001
0.40756983 0.38285014 0.76700002
0.40943295 0.38235101 0.76600003
0.41182745 0.38235101 0.76600003
0.41422194 0.38235101 0.76600003
0.41661641 0.38235101 0.76600003
0.41901091 0.38235101 0.76600003
0.42195553 0.38285014 0.76700002
0.42435315 0.38285014 0.76700002
0.42730716 0.3833493 0.76800001
0.43474352 0.38784167 0.77700001
0.43717244 0.38784167 0.77700001
0.43960133 0.38784167 0.77700001
0.44316801 0.38883999 0.77900004
0.44617516 0.38933915 0.78000003
0.44861341 0.38933915 0.78000003
0.45162991 0.38983828 0.78100002
0.45407128 0.38983828 0.78100002
0.45651269 0.38983828 0.78100002
0.45954174 0.39033747 0.78200006
0.46198624 0.39033747 0.78200006
0.46443075 0.39033747 0.78200006
0.46687526 0.39033747 0.78200006
0.46931976 0.39033747 0.78200006
0.47176427 0.39033747 0.78200006
0.47360232 0.38983828 0.78100002
0.47543418 0.38933915 0.78000003
0.47787243 0.38933915 0.78000003
0.48031071 0.38933915 0.78000003
0.48213005 0.38883999 0.77900004
0.48456517 0.38883999 0.77900004
0.48700029 0.38883999 0.77900004
0.48943543 0.38883999 0.77900004
0.492502 0.38933915 0.78000003
0.49494025 0.38933915 0.78000003
0.49737853 0.38933915 0.78000003
0.49981678 0.38933915 0.78000003
0.50225502 0.38933915 0.78000003
0.50469327 0.38933915 0.78000003
0.50778168 0.38983828 0.78100002
0.51022309 0.38983828 0.78100002
0.51266444 0.38983828 0.78100002
0.51510584 0.38983828 0.78100002
0.51820993 0.39033747 0.78200006
0.5199886 0.38983828 0.78100002
0.52242994 0.38983828 0.78100002
0.52487135 0.38983828 0.78100002
0.5273127 0.38983828 0.78100002
0.5290758 0.38933915 0.78000003
0.53151405 0.38933915 0.78000003
0.5332678 0.38883999 0.77900004
0.53570288 0.38883999 0.77900004
0.53813803 0.38883999 0.77900004
0.53918529 0.38784167 0.77700001
0.54161412 0.38784167 0.77700001
0.54404306 0.38784167 0.77700001
0.54647195 0.38784167 0.77700001
0.55031371 0.38883999 0.77900004
0.55274886 0.38883999 0.77900004
0.55518395 0.38883999 0.77900004
0.55761909 0.38883999 0.77900004
0.56005424 0.38883999 0.77900004
0.56248933 0.38883999 0.77900004
0.56492448 0.38883999 0.77900004
0.56735957 0.38883999 0.77900004
0.57052618 0.38933915 0.78000003
0.57296443 0.38933915 0.78000003
0.57614034 0.38983828 0.78100002
0.57858175 0.38983828 0.78100002
0.5810231 0.38983828 0.78100002
0.58421159 0.39033747 0.78200006
0.58740628 0.3908366 0.78300005
0.59136057 0.39183488 0.78500003
0.59381443 0.39183488 0.78500003
0.5970279 0.39233404 0.78600001
0.60024762 0.39283323 0.78700006
0.60270774 0.39283323 0.78700006
0.60593688 0.39333236 0.78800005
0.60840017 0.39333236 0.78800005
0.61086345 0.39333236 0.78800005
0.61410499 0.39383152 0.78900003
0.61813432 0.39482981 0.79100001
0.62060696 0.39482981 0.79100001
0.6230796 0.39482981 0.79100001
0.62555218 0.39482981 0.79100001
0.62802482 0.39482981 0.79100001
0.63049746 0.39482981 0.79100001
0.63297009 0.39482981 0.79100001
0.63624614 0.39532897 0.79200006
0.63872188 0.39532897 0.79200006
0.64119768 0.39532897 0.79200006
0.64367342 0.39532897 0.79200006
0.64614922 0.39532897 0.79200006
0.64780593 0.39482981 0.79100001
0.65027857 0.39482981 0.79100001
0.65110081 0.39383152 0.78900003
0.65356719 0.39383152 0.78900003
0.65520209 0.39333236 0.78800005
0.65766537 0.39333236 0.78800005
0.66012865 0.39333236 0.78800005
0.66259193 0.39333236 0.78800005
0.66505522 0.39333236 0.78800005
0.6666714 0.39283323 0.78700006
0.66913152 0.39283323 0.78700006
0.67159164 0.39283323 0.78700006
0.67405176 0.39283323 0.78700006
0.67651194 0.39283323 0.78700006
0.6806975 0.39383152 0.78900003
0.68316388 0.39383152 0.78900003
0.68563026 0.39383152 0.78900003
0.68984085 0.39482981 0.79100001
0.69318879 0.39532897 0.79200006
0.69566453 0.39532897 0.79200006
0.69902182 0.39582813 0.79300004
0.70238531 0.39632729 0.79400003
0.7048673 0.39632729 0.79400003
0.70913106 0.39732561 0.79600006
0.71251333 0.39782473 0.79700005
0.71500474 0.39782473 0.79700005
0.71839637 0.39832389 0.79800004
0.72360104 0.39982137 0.80100006
0.72610492 0.39982137 0.80100006
0.7304281 0.40081966 0.80300003
0.73385096 0.40131879 0.80400002
0.7391119 0.40281627 0.80700004
0.74163455 0.40281627 0.80700004
0.74692363 0.40431374 0.81000006
0.75130612 0.40531203 0.81200004
0.75384444 0.40531203 0.81200004
0.75731421 0.40581116 0.81300002
0.75985563 0.40581116 0.81300002
0.76239699 0.40581116 0.81300002
0.77246553 0.4098044 0.82100004
0.77314395 0.40880612 0.81900007
0.77570409 0.40880612 0.81900007
0.77826428 0.40880612 0.81900007
0.77891761 0.4078078 0.81700003
0.78147155 0.4078078 0.81700003
0.7830658 0.40730864 0.81600004
0.78272831 0.40581116 0.81300002
0.78526968 0.40581116 0.81300002
0.7878111 0.40581116 0.81300002
0.78938037 0.40531203 0.81200004
0.79191869 0.40531203 0.81200004
0.79347861 0.40481287 0.81100005
0.79503226 0.40431374 0.81000006
0.79756433 0.40431374 0.81000006
0.79812074 0.40331542 0.80800003
0.79965568 0.40281627 0.80700004
0.80217832 0.40281627 0.80700004
0.80170947 0.40131879 0.80400002
0.80322248 0.40081966 0.80300003
0.80573261 0.40081966 0.80300003
-0.68294036 0.34506547 0.68700004
-0.68079281 0.34506547 0.68700004
-0.67963314 0.34556773 0.68800002
-0.67748249 0.34556773 0.68800002
-0.67631334 0.34607002 0.68900001
-0.67415959 0.34607002 0.68900001
-0.67200577 0.34607002 0.68900001
-0.66985202 0.34607002 0.68900001
-0.66866732 0.34657231 0.69000006
-0.6674763 0.3470746 0.69100004
-0.66435343 0.34657231 0.69000006
-0.66219652 0.34657231 0.69000006
-0.6600396 0.34657231 0.69000006
-0.65788269 0.34657231 0.69000006
-0.65572578 0.34657231 0.69000006
-0.65356886 0.34657231 0.69000006
-0.65141195 0.34657231 0.69000006
-0.65019596 0.3470746 0.69100004
-0.64803594 0.3470746 0.69100004
-0.64587587 0.3470746 0.69100004
-0.64371586 0.3470746 0.69100004
-0.64155579 0.3470746 0.69100004
-0.63939577 0.3470746 0.69100004
-0.6372357 0.3470746 0.69100004
-0.63599473 0.34757686 0.69200003
-0.63474751 0.34807914 0.69300002
-0.63258123 0.34807914 0.69300002
-0.6304149 0.34807914 0.69300002
-0.62824863 0.34807914 0.69300002
-0.6260823 0.34807914 0.69300002
-0.6230157 0.34757686 0.69200003
-0.62085253 0.34757686 0.69200003
-0.61868936 0.34757686 0.69200003
-0.61563528 0.3470746 0.69100004
-0.6134752 0.3470746 0.69100004
-0.61131519 0.3470746 0.69100004
-0.60827357 0.34657231 0.69000006
-0.60611665 0.34657231 0.69000006
-0.60395974 0.34657231 0.69000006
-0.60180283 0.34657231 0.69000006
-0.59964591 0.34657231 0.69000006
-0.597489 0.34657231 0.69000006
-0.59533209 0.34657231 0.69000006
-0.59317517 0.34657231 0.69000006
-0.59101826 0.34657231 0.69000006
-0.58971477 0.3470746 0.69100004
-0.58755469 0.3470746 0.69100004
-0.58539468 0.3470746 0.69100004
-0.58407867 0.34757686 0.69200003
-0.5819155 0.34757686 0.69200003
-0.57975233 0.34757686 0.69200003
-0.5784238 0.34807914 0.69300002
-0.57625753 0.34807914 0.69300002
-0.5740912 0.34807914 0.69300002
-0.57192487 0.34807914 0.69300002
-0.56975859 0.34807914 0.69300002
-0.56759232 0.34807914 0.69300002
-0.56542599 0.34807914 0.69300002
-0.56325972 0.34807914 0.69300002
-0.56109339 0.34807914 0.69300002
-0.55892712 0.34807914 0.69300002
-0.55676085 0.34807914 0.69300002
-0.55379426 0.34757686 0.69200003
-0.55163109 0.34757686 0.69200003
-0.55026197 0.34807914 0.69300002
-0.54809564 0.34807914 0.69300002
-0.54592937 0.34807914 0.69300002
-0.54454768 0.3485814 0.69400001
-0.54315984 0.34908372 0.69500005
-0.54098731 0.34908372 0.69500005
-0.53959 0.34958598 0.69600004
-0.53741437 0.34958598 0.69600004
-0.53523868 0.34958598 0.69600004
-0.53382885 0.35008827 0.69700003
-0.53165007 0.35008827 0.69700003
-0.52947128 0.35008827 0.69700003
-0.52804893 0.35059053 0.69800001
-0.52586704 0.35059053 0.69800001
-0.5236851 0.35059053 0.69800001
-0.52150321 0.35059053 0.69800001
-0.52006531 0.35109285 0.69900006
-0.51788026 0.35109285 0.69900006
-0.51569521 0.35109285 0.69900006
-0.51424479 0.3515951 0.70000005
-0.51278812 0.35209736 0.70100003
-0.51059681 0.35209736 0.70100003
-0.50840551 0.35209736 0.70100003
-0.50693631 0.35259965 0.70200002
-0.50474191 0.35259965 0.70200002
-0.50254744 0.35259965 0.70200002
-0.50035304 0.35259965 0.70200002
-0.4981586 0.35259965 0.70200002
-0.49596417 0.35259965 0.70200002
-0.49236304 0.3515951 0.70000005
-0.49017486 0.3515951 0.70000005
-0.48798668 0.3515951 0.70000005
-0.4851045 0.35109285 0.69900006
-0.48291945 0.35109285 0.69900006
-0.48073435 0.35109285 0.69900006
-0.4819724 0.35360423 0.70400006
-0.47977173 0.35360423 0.70400006
-0.47757104 0.35360423 0.70400006
-0.47537038 0.35360423 0.70400006
-0.47316968 0.35360423 0.70400006
-0.47096902 0.35360423 0.70400006
-0.46876833 0.35360423 0.70400006
-0.46656764 0.35360423 0.70400006
-0.46502656 0.35410649 0.70500004
-0.46282277 0.35410649 0.70500004
-0.4612723 0.35460877 0.70600003
-0.4597156 0.35511103 0.70700002
-0.45750555 0.35511103 0.70700002
-0.45593947 0.35561332 0.708
-0.45436716 0.35611561 0.70900005
