# .PCD v0.7 - Point Cloud Data file format
VERSION 0.7
FIELDS x y z
SIZE 4 4 4
TYPE F F F
COUNT 1 1 1
WIDTH 1438
HEIGHT 1
VIEWPOINT 0 0 0 1 0 0 0
POINTS 1438
DATA ascii
-0.49783137 0.34982017 0.63700002
-0.49584013 0.34982017 0.63700002
-0.49384889 0.34982017 0.63700002
-0.49185765 0.34982017 0.63700002
-0.48986641 0.34982017 0.63700002
-0.48787516 0.34982017 0.63700002
-0.48588395 0.34982017 0.63700002
-0.48389271 0.34982017 0.63700002
-0.48190141 0.34982017 0.63700002
-0.47991017 0.34982017 0.63700002
-0.47791895 0.34982017 0.63700002
-0.47592771 0.34982017 0.63700002
-0.47393647 0.34982017 0.63700002
-0.47194523 0.34982017 0.63700002
-0.47142953 0.35091853 0.63900006
-0.46943203 0.35091853 0.63900006
-0.46743456 0.35091853 0.63900006
-0.46543705 0.35091853 0.63900006
-0.46343955 0.35091853 0.63900006
-0.46144205 0.35091853 0.63900006
-0.45872554 0.35036933 0.63800001
-0.45673117 0.35036933 0.63800001
-0.4547368 0.35036933 0.63800001
-0.4520328 0.34982017 0.63700002
-0.45004156 0.34982017 0.63700002
-0.44805035 0.34982017 0.63700002
-0.44605911 0.34982017 0.63700002
-0.44406787 0.34982017 0.63700002
-0.44207662 0.34982017 0.63700002
-0.44008538 0.34982017 0.63700002
-0.43809411 0.34982017 0.63700002
-0.43610287 0.34982017 0.63700002
-0.43411162 0.34982017 0.63700002
-0.43212038 0.34982017 0.63700002
-0.43012914 0.34982017 0.63700002
-0.4281379 0.34982017 0.63700002
-0.42681563 0.35036933 0.63800001
-0.42548716 0.35091853 0.63900006
-0.42348966 0.35091853 0.63900006
-0.42149219 0.35091853 0.63900006
-0.42015117 0.3514677 0.64000005
-0.41815054 0.3514677 0.64000005
-0.41614994 0.3514677 0.64000005
-0.41479641 0.35201687 0.64100003
-0.41343665 0.352566 0.64200002
-0.41142976 0.352566 0.64200002
-0.4094229 0.352566 0.64200002
-0.40741605 0.352566 0.64200002
-0.40540916 0.352566 0.64200002
-0.4034023 0.352566 0.64200002
-0.40139541 0.352566 0.64200002
-0.39938855 0.352566 0.64200002
-0.39738163 0.352566 0.64200002
-0.39537477 0.352566 0.64200002
-0.39336792 0.352566 0.64200002
-0.39136103 0.352566 0.64200002
-0.38935417 0.352566 0.64200002
-0.38734728 0.352566 0.64200002
-0.38534042 0.352566 0.64200002
-0.38333356 0.352566 0.64200002
-0.38132668 0.352566 0.64200002
-0.37931982 0.352566 0.64200002
-0.37731296 0.352566 0.64200002
-0.37530607 0.352566 0.64200002
-0.37271774 0.35201687 0.64100003
-0.37071401 0.35201687 0.64100003
-0.36871025 0.35201687 0.64100003
-0.36670652 0.35201687 0.64100003
-0.36470276 0.35201687 0.64100003
-0.36269903 0.35201687 0.64100003
-0.36069527 0.35201687 0.64100003
-0.35869154 0.35201687 0.64100003
-0.35724425 0.352566 0.64200002
-0.35745069 0.3547627 0.64600003
-0.35543129 0.3547627 0.64600003
-0.35341191 0.3547627 0.64600003
-0.35193649 0.35531184 0.64700001
-0.34991398 0.35531184 0.64700001
-0.34842917 0.35586101 0.648
-0.34747273 0.35695937 0.65000004
-0.34597227 0.35750854 0.65100002
-0.34393728 0.35750854 0.65100002
-0.34190226 0.35750854 0.65100002
-0.33986726 0.35750854 0.65100002
-0.33783227 0.35750854 0.65100002
-0.33631307 0.35805768 0.65200001
-0.33478767 0.35860687 0.65300006
-0.33274639 0.35860687 0.65300006
-0.33121157 0.35915604 0.65400004
-0.32916719 0.35915604 0.65400004
-0.32712281 0.35915604 0.65400004
-0.3250784 0.35915604 0.65400004
-0.32303402 0.35915604 0.65400004
-0.32098964 0.35915604 0.65400004
-0.31894526 0.35915604 0.65400004
-0.31641632 0.35860687 0.65300006
-0.31437507 0.35860687 0.65300006
-0.31233382 0.35860687 0.65300006
-0.31029257 0.35860687 0.65300006
-0.30825132 0.35860687 0.65300006
-0.30621004 0.35860687 0.65300006
-0.3046346 0.35915604 0.65400004
-0.30305287 0.35970521 0.65500003
-0.30100536 0.35970521 0.65500003
-0.29895785 0.35970521 0.65500003
-0.29645705 0.35915604 0.65400004
-0.29441267 0.35915604 0.65400004
-0.29236829 0.35915604 0.65400004
-0.29032391 0.35915604 0.65400004
-0.28827953 0.35915604 0.65400004
-0.28579748 0.35860687 0.65300006
-0.28375623 0.35860687 0.65300006
-0.28171498 0.35860687 0.65300006
-0.27924538 0.35805768 0.65200001
-0.27720726 0.35805768 0.65200001
-0.27516913 0.35805768 0.65200001
-0.27313098 0.35805768 0.65200001
-0.27109286 0.35805768 0.65200001
-0.26905474 0.35805768 0.65200001
-0.26701659 0.35805768 0.65200001
-0.26497847 0.35805768 0.65200001
-0.26294035 0.35805768 0.65200001
-0.26090223 0.35805768 0.65200001
-0.25886407 0.35805768 0.65200001
-0.25682592 0.35805768 0.65200001
-0.2547878 0.35805768 0.65200001
-0.25274968 0.35805768 0.65200001
-0.25071156 0.35805768 0.65200001
-0.24867342 0.35805768 0.65200001
-0.24663529 0.35805768 0.65200001
-0.24459717 0.35805768 0.65200001
-0.24255903 0.35805768 0.65200001
-0.24088982 0.35860687 0.65300006
-0.23884855 0.35860687 0.65300006
-0.2368073 0.35860687 0.65300006
-0.23512554 0.35915604 0.65400004
-0.23308116 0.35915604 0.65400004
-0.23103678 0.35915604 0.65400004
-0.2289924 0.35915604 0.65400004
-0.22694802 0.35915604 0.65400004
-0.22524752 0.35970521 0.65500003
-0.22320001 0.35970521 0.65500003
-0.22149013 0.36025438 0.65600002
-0.21943951 0.36025438 0.65600002
-0.21738887 0.36025438 0.65600002
-0.21533823 0.36025438 0.65600002
-0.21328761 0.36025438 0.65600002
-0.21123695 0.36025438 0.65600002
-0.20918632 0.36025438 0.65600002
-0.20713568 0.36025438 0.65600002
-0.20508505 0.36025438 0.65600002
-0.20303442 0.36025438 0.65600002
-0.20098378 0.36025438 0.65600002
-0.19893315 0.36025438 0.65600002
-0.19718264 0.36080351 0.65700001
-0.19512887 0.36080351 0.65700001
-0.19307512 0.36080351 0.65700001
-0.19102135 0.36080351 0.65700001
-0.18896759 0.36080351 0.65700001
-0.18691382 0.36080351 0.65700001
-0.18486007 0.36080351 0.65700001
-0.1828063 0.36080351 0.65700001
-0.18047743 0.36025438 0.65600002
-0.17842679 0.36025438 0.65600002
-0.17637616 0.36025438 0.65600002
-0.17405979 0.35970521 0.65500003
-0.17174967 0.35915604 0.65400004
-0.16970529 0.35915604 0.65400004
-0.16740455 0.35860687 0.65300006
-0.16536328 0.35860687 0.65300006
-0.16357213 0.35915604 0.65400004
-0.16177474 0.35970521 0.65500003
-0.15972722 0.35970521 0.65500003
-0.15767971 0.35970521 0.65500003
-0.15586981 0.36025438 0.65600002
-0.15381917 0.36025438 0.65600002
-0.15176854 0.36025438 0.65600002
-0.1497179 0.36025438 0.65600002
-0.14766726 0.36025438 0.65600002
-0.1458386 0.36080351 0.65700001
-0.14378485 0.36080351 0.65700001
-0.14173108 0.36080351 0.65700001
-0.13967733 0.36080351 0.65700001
-0.13741408 0.36025438 0.65600002
-0.13536346 0.36025438 0.65600002
-0.13331282 0.36025438 0.65600002
-0.13126218 0.36025438 0.65600002
-0.12921154 0.36025438 0.65600002
-0.12716091 0.36025438 0.65600002
-0.12511027 0.36025438 0.65600002
-0.12305965 0.36025438 0.65600002
-0.12100901 0.36025438 0.65600002
-0.11895838 0.36025438 0.65600002
-0.11779881 0.36300021 0.66100001
-0.11573254 0.36300021 0.66100001
-0.11366627 0.36300021 0.66100001
-0.1116 0.36300021 0.66100001
-0.10953374 0.36300021 0.66100001
-0.10746748 0.36300021 0.66100001
-0.1054012 0.36300021 0.66100001
-0.10349128 0.36354941 0.66200006
-0.10142189 0.36354941 0.66200006
-0.099352501 0.36354941 0.66200006
-0.09728311 0.36354941 0.66200006
-0.095213726 0.36354941 0.66200006
-0.093144327 0.36354941 0.66200006
-0.091074936 0.36354941 0.66200006
-0.089005545 0.36354941 0.66200006
-0.086936153 0.36354941 0.66200006
-0.08486677 0.36354941 0.66200006
-0.082922436 0.36409855 0.66300005
-0.080849923 0.36409855 0.66300005
-0.078896224 0.36464772 0.66400003
-0.076936275 0.36519688 0.66500002
-0.074857511 0.36519688 0.66500002
-0.072778739 0.36519688 0.66500002
-0.07080628 0.36574605 0.66600001
-0.068724386 0.36574605 0.66600001
-0.066642493 0.36574605 0.66600001
-0.06446366 0.36519688 0.66500002
-0.062384889 0.36519688 0.66500002
-0.060306124 0.36519688 0.66500002
-0.058139797 0.36464772 0.66400003
-0.056064151 0.36464772 0.66400003
-0.053988509 0.36464772 0.66400003
-0.05191287 0.36464772 0.66400003
-0.04983722 0.36464772 0.66400003
-0.047761582 0.36464772 0.66400003
-0.045685936 0.36464772 0.66400003
-0.043610293 0.36464772 0.66400003
-0.041534651 0.36464772 0.66400003
-0.039518435 0.36519688 0.66500002
-0.037495963 0.36574605 0.66600001
-0.03541407 0.36574605 0.66600001
-0.033332177 0.36574605 0.66600001
-0.031250279 0.36574605 0.66600001
-0.029212182 0.36629525 0.66700006
-0.02712716 0.36629525 0.66700006
-0.025042141 0.36629525 0.66700006
-0.02295712 0.36629525 0.66700006
-0.020872097 0.36629525 0.66700006
-0.018787077 0.36629525 0.66700006
-0.016702058 0.36629525 0.66700006
-0.014617035 0.36629525 0.66700006
-0.012532014 0.36629525 0.66700006
-0.010446993 0.36629525 0.66700006
-0.0083619729 0.36629525 0.66700006
-0.0062769516 0.36629525 0.66700006
-0.0041919309 0.36629525 0.66700006
-0.0021100685 0.36684439 0.66800004
-2.1888649e-05 0.36629525 0.66700006
0.0020631324 0.36629525 0.66700006
0.0041543725 0.36684439 0.66800004
0.0062425192 0.36684439 0.66800004
0.0083181951 0.36629525 0.66700006
0.010403217 0.36629525 0.66700006
0.012488237 0.36629525 0.66700006
0.014573258 0.36629525 0.66700006
0.016633304 0.36574605 0.66600001
0.018715199 0.36574605 0.66600001
0.020797092 0.36574605 0.66600001
0.022878988 0.36574605 0.66600001
0.024960885 0.36574605 0.66600001
0.027002173 0.36519688 0.66500002
0.029080942 0.36519688 0.66500002
0.031206569 0.36574605 0.66600001
0.03328846 0.36574605 0.66600001
0.03531725 0.36519688 0.66500002
0.037396017 0.36519688 0.66500002
0.039474789 0.36519688 0.66500002
0.041553557 0.36519688 0.66500002
0.043632325 0.36519688 0.66500002
0.045779832 0.36574605 0.66600001
0.047861729 0.36574605 0.66600001
0.049943622 0.36574605 0.66600001
0.052103635 0.36629525 0.66700006
0.054188658 0.36629525 0.66700006
0.056273676 0.36629525 0.66700006
0.058358703 0.36629525 0.66700006
0.060443722 0.36629525 0.66700006
0.06243499 0.36574605 0.66600001
0.064516887 0.36574605 0.66600001
0.066498786 0.36519688 0.66500002
0.06857755 0.36519688 0.66500002
0.070656322 0.36519688 0.66500002
0.072625719 0.36464772 0.66400003
0.074588858 0.36409855 0.66300005
0.076545753 0.36354941 0.66200006
0.078615136 0.36354941 0.66200006
0.080684528 0.36354941 0.66200006
0.082753927 0.36354941 0.66200006
0.08482331 0.36354941 0.66200006
0.086892702 0.36354941 0.66200006
0.088962093 0.36354941 0.66200006
0.091169 0.36409855 0.66300005
0.093241513 0.36409855 0.66300005
0.095457792 0.36464772 0.66400003
0.097533435 0.36464772 0.66400003
0.09960907 0.36464772 0.66400003
0.10183786 0.36519688 0.66500002
0.10376036 0.36464772 0.66400003
0.105836 0.36464772 0.66400003
0.10791165 0.36464772 0.66400003
0.10998729 0.36464772 0.66400003
0.11206293 0.36464772 0.66400003
0.11413858 0.36464772 0.66400003
0.11638924 0.36519688 0.66500002
0.11846801 0.36519688 0.66500002
0.12054677 0.36519688 0.66500002
0.12280994 0.36574605 0.66600001
0.12526689 0.36684439 0.66800004
0.12735504 0.36684439 0.66800004
0.12963696 0.36739355 0.66900003
0.13350037 0.37233609 0.67800003
0.13581979 0.37288523 0.67900002
0.13794233 0.37288523 0.67900002
0.14027114 0.37343439 0.68000001
0.14260621 0.37398359 0.68100005
0.14473501 0.37398359 0.68100005
0.14707944 0.37453276 0.68200004
0.14921135 0.37453276 0.68200004
0.15134327 0.37453276 0.68200004
0.15302509 0.37343439 0.68000001
0.15515076 0.37343439 0.68000001
0.15727641 0.37343439 0.68000001
0.15940207 0.37343439 0.68000001
0.16129018 0.37288523 0.67900002
0.16341272 0.37288523 0.67900002
0.16529147 0.37233609 0.67800003
0.16716395 0.37178692 0.67700005
0.16928023 0.37178692 0.67700005
0.17139651 0.37178692 0.67700005
0.17351279 0.37178692 0.67700005
0.17562908 0.37178692 0.67700005
0.17774536 0.37178692 0.67700005
0.17986165 0.37178692 0.67700005
0.18224673 0.37233609 0.67800003
0.18463805 0.37288523 0.67900002
0.18676059 0.37288523 0.67900002
0.18943948 0.37398359 0.68100005
0.19184956 0.37453276 0.68200004
0.19398147 0.37453276 0.68200004
0.19611338 0.37453276 0.68200004
0.19824529 0.37453276 0.68200004
0.2003772 0.37453276 0.68200004
0.20250911 0.37453276 0.68200004
0.20464103 0.37453276 0.68200004
0.20677294 0.37453276 0.68200004
0.20890485 0.37453276 0.68200004
0.21103676 0.37453276 0.68200004
0.21316867 0.37453276 0.68200004
0.21530057 0.37453276 0.68200004
0.21743248 0.37453276 0.68200004
0.21988633 0.37508193 0.68300003
0.22202137 0.37508193 0.68300003
0.22448459 0.37563106 0.68400002
0.22695409 0.37618026 0.68500006
0.22909537 0.37618026 0.68500006
0.23123668 0.37618026 0.68500006
0.23337796 0.37618026 0.68500006
0.23551926 0.37618026 0.68500006
0.23766054 0.37618026 0.68500006
0.23980182 0.37618026 0.68500006
0.24194312 0.37618026 0.68500006
0.24372806 0.37563106 0.68400002
0.24550676 0.37508193 0.68300003
0.2476418 0.37508193 0.68300003
0.24977684 0.37508193 0.68300003
0.25154305 0.37453276 0.68200004
0.25367498 0.37453276 0.68200004
0.2554318 0.37398359 0.68100005
0.25756058 0.37398359 0.68100005
0.25968936 0.37398359 0.68100005
0.26181814 0.37398359 0.68100005
0.26433453 0.37453276 0.68200004
0.26685715 0.37508193 0.68300003
0.26899219 0.37508193 0.68300003
0.27112719 0.37508193 0.68300003
0.27326223 0.37508193 0.68300003
0.2758005 0.37563106 0.68400002
0.27793866 0.37563106 0.68400002
0.28007683 0.37563106 0.68400002
0.28262761 0.37618026 0.68500006
0.28476888 0.37618026 0.68500006
0.28691018 0.37618026 0.68500006
0.28947344 0.37672943 0.68600005
0.29161784 0.37672943 0.68600005
0.29376227 0.37672943 0.68600005
0.29633802 0.3772786 0.68700004
0.29892004 0.37782776 0.68800002
0.30107069 0.37782776 0.68800002
0.30322137 0.37782776 0.68800002
0.30581588 0.3783769 0.68900001
0.30796969 0.3783769 0.68900001
0.31012347 0.3783769 0.68900001
0.31227726 0.3783769 0.68900001
0.31397471 0.37782776 0.68800002
0.31566587 0.3772786 0.68700004
0.31781343 0.3772786 0.68700004
0.31949523 0.37672943 0.68600005
0.32163963 0.37672943 0.68600005
0.32378405 0.37672943 0.68600005
0.32545337 0.37618026 0.68500006
0.32759467 0.37618026 0.68500006
0.32973596 0.37618026 0.68500006
0.33090824 0.37508193 0.68300003
0.33304328 0.37508193 0.68300003
0.33517832 0.37508193 0.68300003
0.33731335 0.37508193 0.68300003
0.33944836 0.37508193 0.68300003
0.34158343 0.37508193 0.68300003
0.34422171 0.37563106 0.68400002
0.34635988 0.37563106 0.68400002
0.34849802 0.37563106 0.68400002
0.35114884 0.37618026 0.68500006
0.35329011 0.37618026 0.68500006
0.35543141 0.37618026 0.68500006
0.35809469 0.37672943 0.68600005
0.36076424 0.3772786 0.68700004
0.36291176 0.3772786 0.68700004
0.36612207 0.3783769 0.68900001
0.36881039 0.3789261 0.69000006
0.3709673 0.3789261 0.69000006
0.37312421 0.3789261 0.69000006
0.37582502 0.37947527 0.69100004
0.37798506 0.37947527 0.69100004
0.3801451 0.37947527 0.69100004
0.38230515 0.37947527 0.69100004
0.38446519 0.37947527 0.69100004
0.38662523 0.37947527 0.69100004
0.3887853 0.37947527 0.69100004
0.39094535 0.37947527 0.69100004
0.39310539 0.37947527 0.69100004
0.39698148 0.38112277 0.69400001
0.39915088 0.38112277 0.69400001
0.40074205 0.3805736 0.69300002
0.40290833 0.3805736 0.69300002
0.40507463 0.3805736 0.69300002
0.40665329 0.38002443 0.69200003
0.40881646 0.38002443 0.69200003
0.41097963 0.38002443 0.69200003
0.41254577 0.37947527 0.69100004
0.41410565 0.3789261 0.69000006
0.41626257 0.3789261 0.69000006
0.41841951 0.3789261 0.69000006
0.42057642 0.3789261 0.69000006
0.42273334 0.3789261 0.69000006
0.42550603 0.37947527 0.69100004
0.42766607 0.37947527 0.69100004
0.43044814 0.38002443 0.69200003
0.43261132 0.38002443 0.69200003
0.43477446 0.38002443 0.69200003
0.43693769 0.38002443 0.69200003
0.43973538 0.3805736 0.69300002
0.44190168 0.3805736 0.69300002
0.44406796 0.3805736 0.69300002
0.4475221 0.38167194 0.69500005
0.44969466 0.38167194 0.69500005
0.45186722 0.38167194 0.69500005
0.45403975 0.38167194 0.69500005
0.45621231 0.38167194 0.69500005
0.45838484 0.38167194 0.69500005
0.4605574 0.38167194 0.69500005
0.46339574 0.3822211 0.69600004
0.4655714 0.3822211 0.69600004
0.46774706 0.3822211 0.69600004
0.47059792 0.38277027 0.69700003
0.47277671 0.38277027 0.69700003
0.47563693 0.38331944 0.69800001
0.47781885 0.38331944 0.69800001
0.48000076 0.38331944 0.69800001
0.48218271 0.38331944 0.69800001
0.48436463 0.38331944 0.69800001
0.48654655 0.38331944 0.69800001
0.48872852 0.38331944 0.69800001
0.49020714 0.38277027 0.69700003
0.49238592 0.38277027 0.69700003
0.49456474 0.38277027 0.69700003
0.49674353 0.38277027 0.69700003
0.49892232 0.38277027 0.69700003
0.50038218 0.3822211 0.69600004
0.50255787 0.3822211 0.69600004
0.50473356 0.3822211 0.69600004
0.50545257 0.38112277 0.69400001
0.507622 0.38112277 0.69400001
0.50979137 0.38112277 0.69400001
0.5119608 0.38112277 0.69400001
0.51338941 0.3805736 0.69300002
0.51555574 0.3805736 0.69300002
0.51772201 0.3805736 0.69300002
0.51988828 0.3805736 0.69300002
0.52205461 0.3805736 0.69300002
0.52422088 0.3805736 0.69300002
0.52638721 0.3805736 0.69300002
0.52855349 0.3805736 0.69300002
0.53148562 0.38112277 0.69400001
0.53365505 0.38112277 0.69400001
0.53582448 0.38112277 0.69400001
0.53954434 0.3822211 0.69600004
0.54172003 0.3822211 0.69600004
0.54389566 0.3822211 0.69600004
0.54607135 0.3822211 0.69600004
0.54824704 0.3822211 0.69600004
0.55042273 0.3822211 0.69600004
0.55339235 0.38277027 0.69700003
0.55557114 0.38277027 0.69700003
0.55774993 0.38277027 0.69700003
0.56073207 0.38331944 0.69800001
0.56372046 0.38386863 0.69900006
0.56590551 0.38386863 0.69900006
0.56809056 0.38386863 0.69900006
0.57109147 0.38441777 0.70000005
0.57327962 0.38441777 0.70000005
0.57546782 0.38441777 0.70000005
0.5784812 0.38496694 0.70100003
0.58150083 0.38551611 0.70200002
0.58369529 0.38551611 0.70200002
0.5858897 0.38551611 0.70200002
0.58892184 0.38606527 0.70300001
0.59111947 0.38606527 0.70300001
0.59331697 0.38606527 0.70300001
0.5963617 0.38661447 0.70400006
0.5977121 0.38606527 0.70300001
0.59990966 0.38606527 0.70300001
0.60210723 0.38606527 0.70300001
0.60430479 0.38606527 0.70300001
0.60650229 0.38606527 0.70300001
0.60869986 0.38606527 0.70300001
0.61002845 0.38551611 0.70200002
0.61222285 0.38551611 0.70200002
0.61354208 0.38496694 0.70100003
0.61573339 0.38496694 0.70100003
0.6170432 0.38441777 0.70000005
0.6192314 0.38441777 0.70000005
0.62141955 0.38441777 0.70000005
0.62360775 0.38441777 0.70000005
0.6257959 0.38441777 0.70000005
0.62798411 0.38441777 0.70000005
0.63017225 0.38441777 0.70000005
0.63416713 0.38551611 0.70200002
0.6363616 0.38551611 0.70200002
0.63855606 0.38551611 0.70200002
0.64075047 0.38551611 0.70200002
0.64294493 0.38551611 0.70200002
0.64513934 0.38551611 0.70200002
0.64733374 0.38551611 0.70200002
0.64952821 0.38551611 0.70200002
0.65172261 0.38551611 0.70200002
0.65391707 0.38551611 0.70200002
0.65517688 0.38496694 0.70100003
0.65736818 0.38496694 0.70100003
0.65955949 0.38496694 0.70100003
0.66175079 0.38496694 0.70100003
0.66867775 0.38771278 0.70600003
0.67088467 0.38771278 0.70600003
0.67309159 0.38771278 0.70600003
0.67625505 0.38826194 0.70700002
0.67846507 0.38826194 0.70700002
0.68067515 0.38826194 0.70700002
0.68385106 0.38881111 0.708
0.68606424 0.38881111 0.708
0.68827748 0.38881111 0.708
0.68951541 0.38826194 0.70700002
0.69172549 0.38826194 0.70700002
0.69393551 0.38826194 0.70700002
0.6971302 0.38881111 0.708
0.69934344 0.38881111 0.708
0.70155662 0.38881111 0.708
0.70476383 0.38936031 0.70900005
0.70797729 0.38990948 0.71000004
0.71019673 0.38990948 0.71000004
0.71241611 0.38990948 0.71000004
-0.62627721 0.34794536 0.63000005
-0.62430787 0.34794536 0.63000005
-0.62233847 0.34794536 0.63000005
-0.62135386 0.34849766 0.63100004
-0.62036294 0.34904996 0.63200003
-0.61838734 0.34904996 0.63200003
-0.61641169 0.34904996 0.63200003
-0.61443609 0.34904996 0.63200003
-0.61246049 0.34904996 0.63200003
-0.61048484 0.34904996 0.63200003
-0.60850924 0.34904996 0.63200003
-0.60653365 0.34904996 0.63200003
-0.60455799 0.34904996 0.63200003
-0.6025824 0.34904996 0.63200003
-0.6006068 0.34904996 0.63200003
-0.59768397 0.34849766 0.63100004
-0.59571153 0.34849766 0.63100004
-0.59373903 0.34849766 0.63100004
-0.59176654 0.34849766 0.63100004
-0.58979404 0.34849766 0.63100004
-0.58782154 0.34849766 0.63100004
-0.58584911 0.34849766 0.63100004
-0.58295131 0.34794536 0.63000005
-0.58098191 0.34794536 0.63000005
-0.57901257 0.34794536 0.63000005
-0.57704324 0.34794536 0.63000005
-0.57507384 0.34794536 0.63000005
-0.5731045 0.34794536 0.63000005
-0.57022852 0.34739307 0.62900001
-0.56826228 0.34739307 0.62900001
-0.5662961 0.34739307 0.62900001
-0.5643298 0.34739307 0.62900001
-0.5614695 0.34684077 0.62800002
-0.55950642 0.34684077 0.62800002
-0.55665553 0.34628847 0.62700003
-0.55469555 0.34628847 0.62700003
-0.55273557 0.34628847 0.62700003
-0.55077559 0.34628847 0.62700003
-0.54881561 0.34628847 0.62700003
-0.54598343 0.34573621 0.62600005
-0.54402661 0.34573621 0.62600005
-0.54206973 0.34573621 0.62600005
-0.54011285 0.34573621 0.62600005
-0.53901571 0.34628847 0.62700003
-0.53619915 0.34573621 0.62600005
-0.53424233 0.34573621 0.62600005
-0.53313577 0.34628847 0.62700003
-0.53117579 0.34628847 0.62700003
-0.52921581 0.34628847 0.62700003
-0.52725583 0.34628847 0.62700003
-0.52529579 0.34628847 0.62700003
-0.52333581 0.34628847 0.62700003
-0.52137583 0.34628847 0.62700003
-0.51941586 0.34628847 0.62700003
-0.51745588 0.34628847 0.62700003
-0.51631802 0.34684077 0.62800002
-0.51435494 0.34684077 0.62800002
-0.51239181 0.34684077 0.62800002
-0.5112415 0.34739307 0.62900001
-0.51008493 0.34794536 0.63000005
-0.50811559 0.34794536 0.63000005
-0.50694966 0.34849766 0.63100004
-0.50577742 0.34904996 0.63200003
-0.50380182 0.34904996 0.63200003
-0.50182623 0.34904996 0.63200003
-0.4998506 0.34904996 0.63200003
-0.49787498 0.34904996 0.63200003
-0.49589938 0.34904996 0.63200003
-0.49392375 0.34904996 0.63200003
-0.49272653 0.34960222 0.63300002
-0.48997253 0.34904996 0.63200003
-0.48799694 0.34904996 0.63200003
-0.48679033 0.34960222 0.63300002
-0.48404571 0.34904996 0.63200003
-0.48207009 0.34904996 0.63200003
-0.48009449 0.34904996 0.63200003
-0.47811884 0.34904996 0.63200003
-0.47614324 0.34904996 0.63200003
-0.47491786 0.34960222 0.63300002
-0.47293913 0.34960222 0.63300002
-0.47096041 0.34960222 0.63300002
-0.46972254 0.35015452 0.634
-0.46774068 0.35015452 0.634
-0.46575883 0.35015452 0.634
-0.46377695 0.35015452 0.634
-0.46179509 0.35015452 0.634
-0.45981324 0.35015452 0.634
-0.45783135 0.35015452 0.634
-0.4558495 0.35015452 0.634
-0.45386764 0.35015452 0.634
-0.45188579 0.35015452 0.634
-0.44848469 0.34904996 0.63200003
-0.44650906 0.34904996 0.63200003
-0.44453347 0.34904996 0.63200003
-0.44255784 0.34904996 0.63200003
-0.44058225 0.34904996 0.63200003
-0.43860662 0.34904996 0.63200003
-0.43663102 0.34904996 0.63200003
-0.43465537 0.34904996 0.63200003
-0.43267977 0.34904996 0.63200003
-0.43070415 0.34904996 0.63200003
-0.42872855 0.34904996 0.63200003
-0.42675292 0.34904996 0.63200003
-0.42477733 0.34904996 0.63200003
-0.42681563 0.35236371 0.63800001
-0.42548716 0.35291603 0.63900006
-0.42348966 0.35291603 0.63900006
-0.42149219 0.35291603 0.63900006
-0.42015117 0.3534683 0.64000005
-0.41815054 0.3534683 0.64000005
-0.41614994 0.3534683 0.64000005
-0.41479641 0.3540206 0.64100003
-0.41343665 0.35457289 0.64200002
-0.41142976 0.35457289 0.64200002
-0.4094229 0.35457289 0.64200002
-0.40741605 0.35457289 0.64200002
-0.40540916 0.35457289 0.64200002
-0.4034023 0.35457289 0.64200002
-0.40139541 0.35457289 0.64200002
-0.39938855 0.35457289 0.64200002
-0.39738163 0.35457289 0.64200002
-0.39537477 0.35457289 0.64200002
-0.39336792 0.35457289 0.64200002
-0.39136103 0.35457289 0.64200002
-0.38935417 0.35457289 0.64200002
-0.38734728 0.35457289 0.64200002
-0.38534042 0.35457289 0.64200002
-0.38333356 0.35457289 0.64200002
-0.38132668 0.35457289 0.64200002
-0.37931982 0.35457289 0.64200002
-0.37731296 0.35457289 0.64200002
-0.37530607 0.35457289 0.64200002
-0.37271774 0.3540206 0.64100003
-0.37071401 0.3540206 0.64100003
-0.36871025 0.3540206 0.64100003
-0.36670652 0.3540206 0.64100003
-0.36470276 0.3540206 0.64100003
-0.36269903 0.3540206 0.64100003
-0.36069527 0.3540206 0.64100003
-0.35869154 0.3540206 0.64100003
-0.35724425 0.35457289 0.64200002
-0.35523736 0.35457289 0.64200002
-0.35323048 0.35457289 0.64200002
-0.35122359 0.35457289 0.64200002
-0.34921673 0.35457289 0.64200002
-0.34720987 0.35457289 0.64200002
-0.34574068 0.35512516 0.64300001
-0.34479985 0.35622978 0.64500004
-0.34331504 0.35678208 0.64600003
-0.34129566 0.35678208 0.64600003
-0.33927628 0.35678208 0.64600003
-0.33777899 0.35733435 0.64700001
-0.33575648 0.35733435 0.64700001
-0.33424979 0.35788664 0.648
-0.33273688 0.35843897 0.64900005
-0.33070815 0.35843897 0.64900005
-0.32867938 0.35843897 0.64900005
-0.32715395 0.35899124 0.65000004
-0.32512206 0.35899124 0.65000004
-0.32259309 0.35843897 0.64900005
-0.32056436 0.35843897 0.64900005
-0.3185356 0.35843897 0.64900005
-0.31601915 0.35788664 0.648
-0.31399351 0.35788664 0.648
-0.31196788 0.35788664 0.648
-0.30994228 0.35788664 0.648
-0.30791664 0.35788664 0.648
-0.30589101 0.35788664 0.648
-0.3038654 0.35788664 0.648
-0.30230558 0.35843897 0.64900005
-0.30027682 0.35843897 0.64900005
-0.2987076 0.35899124 0.65000004
-0.29667574 0.35899124 0.65000004
-0.29464385 0.35899124 0.65000004
-0.29261199 0.35899124 0.65000004
-0.29013306 0.35843897 0.64900005
-0.2881043 0.35843897 0.64900005
-0.28607556 0.35843897 0.64900005
-0.2840468 0.35843897 0.64900005
-0.28201804 0.35843897 0.64900005
-0.2799893 0.35843897 0.64900005
-0.27796054 0.35843897 0.64900005
-0.27550659 0.35788664 0.648
-0.27348095 0.35788664 0.648
-0.27145535 0.35788664 0.648
-0.26942971 0.35788664 0.648
-0.26740408 0.35788664 0.648
-0.26537848 0.35788664 0.648
-0.26294643 0.35733435 0.64700001
-0.26092392 0.35733435 0.64700001
-0.25890145 0.35733435 0.64700001
-0.25687894 0.35733435 0.64700001
-0.25485641 0.35733435 0.64700001
-0.2528339 0.35733435 0.64700001
-0.25081143 0.35733435 0.64700001
-0.2484044 0.35678208 0.64600003
-0.24638502 0.35678208 0.64600003
-0.24436565 0.35678208 0.64600003
-0.24234627 0.35678208 0.64600003
-0.2403269 0.35678208 0.64600003
-0.23867641 0.35733435 0.64700001
-0.23665392 0.35733435 0.64700001
-0.23463142 0.35733435 0.64700001
-0.23296842 0.35788664 0.648
-0.23094279 0.35788664 0.648
-0.22891717 0.35788664 0.648
-0.22689153 0.35788664 0.648
-0.22486591 0.35788664 0.648
-0.22318418 0.35843897 0.64900005
-0.22115543 0.35843897 0.64900005
-0.21912669 0.35843897 0.64900005
-0.21709794 0.35843897 0.64900005
-0.21540056 0.35899124 0.65000004
-0.21336868 0.35899124 0.65000004
-0.21133681 0.35899124 0.65000004
-0.20930491 0.35899124 0.65000004
-0.20759191 0.35954353 0.65100002
-0.2055569 0.35954353 0.65100002
-0.20352191 0.35954353 0.65100002
-0.2014869 0.35954353 0.65100002
-0.19945189 0.35954353 0.65100002
-0.19741689 0.35954353 0.65100002
-0.195682 0.36009583 0.65200001
-0.19512887 0.36285728 0.65700001
-0.19307512 0.36285728 0.65700001
-0.19102135 0.36285728 0.65700001
-0.18896759 0.36285728 0.65700001
-0.18691382 0.36285728 0.65700001
-0.18486007 0.36285728 0.65700001
-0.1828063 0.36285728 0.65700001
-0.18047743 0.36230502 0.65600002
-0.17842679 0.36230502 0.65600002
-0.17637616 0.36230502 0.65600002
-0.17405979 0.36175272 0.65500003
-0.17174967 0.36120042 0.65400004
-0.16970529 0.36120042 0.65400004
-0.16740455 0.36064816 0.65300006
-0.16536328 0.36064816 0.65300006
-0.16357213 0.36120042 0.65400004
-0.16177474 0.36175272 0.65500003
-0.15972722 0.36175272 0.65500003
-0.15767971 0.36175272 0.65500003
-0.15586981 0.36230502 0.65600002
-0.15381917 0.36230502 0.65600002
-0.15176854 0.36230502 0.65600002
-0.1497179 0.36230502 0.65600002
-0.14766726 0.36230502 0.65600002
-0.1458386 0.36285728 0.65700001
-0.14378485 0.36285728 0.65700001
-0.14173108 0.36285728 0.65700001
-0.13967733 0.36285728 0.65700001
-0.13741408 0.36230502 0.65600002
-0.13536346 0.36230502 0.65600002
-0.13331282 0.36230502 0.65600002
-0.13126218 0.36230502 0.65600002
-0.12921154 0.36230502 0.65600002
-0.12716091 0.36230502 0.65600002
-0.12511027 0.36230502 0.65600002
-0.12305965 0.36230502 0.65600002
-0.12100901 0.36230502 0.65600002
-0.11895838 0.36230502 0.65600002
-0.11690774 0.36230502 0.65600002
-0.11503218 0.36285728 0.65700001
-0.11297842 0.36285728 0.65700001
-0.11092466 0.36285728 0.65700001
-0.1088709 0.36285728 0.65700001
-0.10681715 0.36285728 0.65700001
-0.10476337 0.36285728 0.65700001
-0.10270961 0.36285728 0.65700001
-0.10065585 0.36285728 0.65700001
-0.098602101 0.36285728 0.65700001
-0.096548341 0.36285728 0.65700001
-0.094494581 0.36285728 0.65700001
-0.092581518 0.36340961 0.65800005
-0.090387054 0.36285728 0.65700001
-0.088333294 0.36285728 0.65700001
-0.086279534 0.36285728 0.65700001
-0.084225774 0.36285728 0.65700001
-0.082297079 0.36340961 0.65800005
-0.080240197 0.36340961 0.65800005
-0.07830213 0.36396191 0.65900004
-0.076242119 0.36396191 0.65900004
-0.074182101 0.36396191 0.65900004
-0.072231531 0.36451417 0.66000003
-0.070168391 0.36451417 0.66000003
-0.068105251 0.36451417 0.66000003
-0.06604211 0.36451417 0.66000003
-0.063978978 0.36451417 0.66000003
-0.06191583 0.36451417 0.66000003
-0.059762008 0.36396191 0.65900004
-0.057701997 0.36396191 0.65900004
-0.055641983 0.36396191 0.65900004
-0.053500663 0.36340961 0.65800005
-0.051443778 0.36340961 0.65800005
-0.049386889 0.36340961 0.65800005
-0.047330003 0.36340961 0.65800005
-0.04527311 0.36340961 0.65800005
-0.043281902 0.36396191 0.65900004
-0.041221891 0.36396191 0.65900004
-0.03916188 0.36396191 0.65900004
-0.037158165 0.36451417 0.66000003
-0.035148196 0.36506647 0.66100001
-0.033081934 0.36506647 0.66100001
-0.031015668 0.36506647 0.66100001
-0.028949402 0.36506647 0.66100001
-0.026883136 0.36506647 0.66100001
-0.024816873 0.36506647 0.66100001
-0.022750607 0.36506647 0.66100001
-0.020684341 0.36506647 0.66100001
-0.018618077 0.36506647 0.66100001
-0.016551813 0.36506647 0.66100001
-0.014485546 0.36506647 0.66100001
-0.012419282 0.36506647 0.66100001
-0.010353017 0.36506647 0.66100001
-0.0082867518 0.36506647 0.66100001
-0.0062204869 0.36506647 0.66100001
-0.0041605071 0.3656188 0.66200006
-0.0020911158 0.3656188 0.66200006
-2.1691749e-05 0.36506647 0.66100001
0.0020445732 0.36506647 0.66100001
0.0041108383 0.36506647 0.66100001
0.0061771036 0.36506647 0.66100001
0.0082433689 0.36506647 0.66100001
0.010309634 0.36506647 0.66100001
0.012375899 0.36506647 0.66100001
0.014442164 0.36506647 0.66100001
0.016508428 0.36506647 0.66100001
0.018574694 0.36506647 0.66100001
0.020609733 0.36451417 0.66000003
0.022672873 0.36451417 0.66000003
0.024736011 0.36451417 0.66000003
0.02679915 0.36451417 0.66000003
0.02886229 0.36451417 0.66000003
0.030925428 0.36451417 0.66000003
0.032988567 0.36451417 0.66000003
0.035051707 0.36451417 0.66000003
0.037114847 0.36451417 0.66000003
0.039177988 0.36451417 0.66000003
0.041178636 0.36396191 0.65900004
0.043238651 0.36396191 0.65900004
0.045298662 0.36396191 0.65900004
0.047430541 0.36451417 0.66000003
0.049493682 0.36451417 0.66000003
0.052103635 0.36838025 0.66700006
0.054188658 0.36838025 0.66700006
0.056273676 0.36838025 0.66700006
0.058358703 0.36838025 0.66700006
0.060443722 0.36838025 0.66700006
0.06243499 0.36782795 0.66600001
0.064516887 0.36782795 0.66600001
0.066498786 0.36727566 0.66500002
0.06857755 0.36727566 0.66500002
0.070656322 0.36727566 0.66500002
0.072625719 0.36672336 0.66400003
0.074588858 0.36617109 0.66300005
0.076545753 0.3656188 0.66200006
0.078615136 0.3656188 0.66200006
0.080684528 0.3656188 0.66200006
0.082753927 0.3656188 0.66200006
0.08482331 0.3656188 0.66200006
0.086892702 0.3656188 0.66200006
0.088962093 0.3656188 0.66200006
0.091169 0.36617109 0.66300005
0.093241513 0.36617109 0.66300005
0.095457792 0.36672336 0.66400003
0.097533435 0.36672336 0.66400003
0.09960907 0.36672336 0.66400003
0.10183786 0.36727566 0.66500002
0.10376036 0.36672336 0.66400003
0.105836 0.36672336 0.66400003
0.10791165 0.36672336 0.66400003
0.10998729 0.36672336 0.66400003
0.11206293 0.36672336 0.66400003
0.11413858 0.36672336 0.66400003
0.11638924 0.36727566 0.66500002
0.11846801 0.36727566 0.66500002
0.12054677 0.36727566 0.66500002
0.12280994 0.36782795 0.66600001
0.12526689 0.36893255 0.66800004
0.12735504 0.36893255 0.66800004
0.12963696 0.36948484 0.66900003
0.13192514 0.37003711 0.67000002
0.13421956 0.37058941 0.671
0.13631709 0.37058941 0.671
0.13882719 0.37169403 0.67300004
0.14114037 0.3722463 0.67400002
0.14324726 0.3722463 0.67400002
0.14556982 0.37279859 0.67500001
0.14767985 0.37279859 0.67500001
0.14978988 0.37279859 0.67500001
0.15189992 0.37279859 0.67500001
0.15400994 0.37279859 0.67500001
0.15611997 0.37279859 0.67500001
0.15799558 0.3722463 0.67400002
0.15986495 0.37169403 0.67300004
0.16196872 0.37169403 0.67300004
0.16382872 0.37114173 0.67200005
0.16568244 0.37058941 0.671
0.16777995 0.37058941 0.671
0.16987748 0.37058941 0.671
0.171975 0.37058941 0.671
0.17407252 0.37058941 0.671
0.17590751 0.37003711 0.67000002
0.17800193 0.37003711 0.67000002
0.18063393 0.37114173 0.67200005
0.18273458 0.37114173 0.67200005
0.18511027 0.37169403 0.67300004
0.18749222 0.3722463 0.67400002
0.18988043 0.37279859 0.67500001
0.19199045 0.37279859 0.67500001
0.19410048 0.37279859 0.67500001
0.1962105 0.37279859 0.67500001
0.19832054 0.37279859 0.67500001
0.20043056 0.37279859 0.67500001
0.20254061 0.37279859 0.67500001
0.20465064 0.37279859 0.67500001
0.20676066 0.37279859 0.67500001
0.20887069 0.37279859 0.67500001
0.21098071 0.37279859 0.67500001
0.21309075 0.37279859 0.67500001
0.21520077 0.37279859 0.67500001
0.21763276 0.37335092 0.67600006
0.2197459 0.37335092 0.67600006
0.22251543 0.37445548 0.67800003
0.22496615 0.37500778 0.67900002
0.22708869 0.37500778 0.67900002
0.22954881 0.37556005 0.68000001
0.23167446 0.37556005 0.68000001
0.23380011 0.37556005 0.68000001
0.23557884 0.37500778 0.67900002
0.23770136 0.37500778 0.67900002
0.23947069 0.37445548 0.67800003
0.2415901 0.37445548 0.67800003
0.24335006 0.37390319 0.67700005
0.24546634 0.37390319 0.67700005
0.24685119 0.37279859 0.67500001
0.24896121 0.37279859 0.67500001
0.25107127 0.37279859 0.67500001
0.25318128 0.37279859 0.67500001
0.25529131 0.37279859 0.67500001
0.25740135 0.37279859 0.67500001
0.25951138 0.37279859 0.67500001
0.26162139 0.37279859 0.67500001
0.26373142 0.37279859 0.67500001
0.26584145 0.37279859 0.67500001
0.26834846 0.37335092 0.67600006
0.27046162 0.37335092 0.67600006
0.27297798 0.37390319 0.67700005
0.27509427 0.37390319 0.67700005
0.27762002 0.37445548 0.67800003
0.27973944 0.37445548 0.67800003
0.28185883 0.37445548 0.67800003
0.28439707 0.37500778 0.67900002
0.28736356 0.37611237 0.68100005
0.28949234 0.37611237 0.68100005
0.29204935 0.37666467 0.68200004
0.29418126 0.37666467 0.68200004
0.29631317 0.37666467 0.68200004
0.29888266 0.37721696 0.68300003
0.30101773 0.37721696 0.68300003
0.30359662 0.37776923 0.68400002
0.30573478 0.37776923 0.68400002
0.30787292 0.37776923 0.68400002
0.31227726 0.38053071 0.68900001
0.31397471 0.37997842 0.68800002
0.31566587 0.37942612 0.68700004
0.31781343 0.37942612 0.68700004
0.31949523 0.37887385 0.68600005
0.32163963 0.37887385 0.68600005
0.32378405 0.37887385 0.68600005
0.32545337 0.37832156 0.68500006
0.32759467 0.37832156 0.68500006
0.32973596 0.37832156 0.68500006
0.33090824 0.37721696 0.68300003
0.33304328 0.37721696 0.68300003
0.33517832 0.37721696 0.68300003
0.33731335 0.37721696 0.68300003
0.33944836 0.37721696 0.68300003
0.34158343 0.37721696 0.68300003
0.34422171 0.37776923 0.68400002
0.34635988 0.37776923 0.68400002
0.34849802 0.37776923 0.68400002
0.35114884 0.37832156 0.68500006
0.35329011 0.37832156 0.68500006
0.35543141 0.37832156 0.68500006
0.35809469 0.37887385 0.68600005
0.36076424 0.37942612 0.68700004
0.36291176 0.37942612 0.68700004
0.36612207 0.38053071 0.68900001
0.36881039 0.38108301 0.69000006
0.3709673 0.38108301 0.69000006
0.37312421 0.38108301 0.69000006
0.37582502 0.38163531 0.69100004
0.37798506 0.38163531 0.69100004
0.3801451 0.38163531 0.69100004
0.38230515 0.38163531 0.69100004
0.38446519 0.38163531 0.69100004
0.38662523 0.38163531 0.69100004
0.3887853 0.38163531 0.69100004
0.39094535 0.38163531 0.69100004
0.39253649 0.38108301 0.69000006
0.39412138 0.38053071 0.68900001
0.39627516 0.38053071 0.68900001
0.39785069 0.37997842 0.68800002
0.40000135 0.37997842 0.68800002
0.40215203 0.37997842 0.68800002
0.40371504 0.37942612 0.68700004
0.40586257 0.37942612 0.68700004
0.40801013 0.37942612 0.68700004
0.40956062 0.37887385 0.68600005
0.41110492 0.37832156 0.68500006
0.41324618 0.37832156 0.68500006
0.41538748 0.37832156 0.68500006
0.41752875 0.37832156 0.68500006
0.41967005 0.37832156 0.68500006
0.42181134 0.37832156 0.68500006
0.42395261 0.37832156 0.68500006
0.42609391 0.37832156 0.68500006
0.4282352 0.37832156 0.68500006
0.43037647 0.37832156 0.68500006
0.4325178 0.37832156 0.68500006
0.43529361 0.37887385 0.68600005
0.43743804 0.37887385 0.68600005
0.44086403 0.37997842 0.68800002
0.44301468 0.37997842 0.68800002
0.44516534 0.37997842 0.68800002
0.44731602 0.37997842 0.68800002
0.45011997 0.38053071 0.68900001
0.45227376 0.38053071 0.68900001
0.45442754 0.38053071 0.68900001
0.45658132 0.38053071 0.68900001
0.45873511 0.38053071 0.68900001
0.46088892 0.38053071 0.68900001
0.46371478 0.38108301 0.69000006
0.46654686 0.38163531 0.69100004
0.46870691 0.38163531 0.69100004
0.47154838 0.3821876 0.69200003
0.47371155 0.3821876 0.69200003
0.47587472 0.3821876 0.69200003
0.47734708 0.38163531 0.69100004
0.47950712 0.38163531 0.69100004
0.48166716 0.38163531 0.69100004
0.48382726 0.38163531 0.69100004
0.485284 0.38108301 0.69000006
0.48744091 0.38108301 0.69000006
0.48888823 0.38053071 0.68900001
0.49104202 0.38053071 0.68900001
0.4931958 0.38053071 0.68900001
0.49534959 0.38053071 0.68900001
0.49678132 0.37997842 0.68800002
0.498932 0.37997842 0.68800002
0.50035435 0.37942612 0.68700004
0.5025019 0.37942612 0.68700004
0.5046494 0.37942612 0.68700004
0.50679696 0.37942612 0.68700004
0.50894451 0.37942612 0.68700004
0.51109207 0.37942612 0.68700004
0.51323956 0.37942612 0.68700004
0.51538712 0.37942612 0.68700004
0.51828796 0.37997842 0.68800002
0.52043861 0.37997842 0.68800002
0.52258933 0.37997842 0.68800002
0.52473998 0.37997842 0.68800002
0.52689064 0.37997842 0.68800002
0.52904135 0.37997842 0.68800002
0.53196406 0.38053071 0.68900001
0.5348931 0.38108301 0.69000006
0.53705001 0.38108301 0.69000006
0.5399884 0.38163531 0.69100004
0.54214841 0.38163531 0.69100004
0.54430848 0.38163531 0.69100004
0.5464685 0.38163531 0.69100004
0.5494225 0.3821876 0.69200003
0.55238277 0.3827399 0.69300002
0.55454904 0.3827399 0.69300002
0.55671537 0.3827399 0.69300002
0.55968809 0.38329217 0.69400001
0.56185752 0.38329217 0.69400001
0.56402695 0.38329217 0.69400001
0.56619638 0.38329217 0.69400001
0.56836575 0.38329217 0.69400001
0.57053518 0.38329217 0.69400001
0.5735299 0.38384449 0.69500005
0.57570243 0.38384449 0.69500005
0.58369529 0.38771054 0.70200002
0.5858897 0.38771054 0.70200002
0.58892184 0.38826284 0.70300001
0.59111947 0.38826284 0.70300001
0.59331697 0.38826284 0.70300001
0.5963617 0.38881513 0.70400006
0.5977121 0.38826284 0.70300001
0.59990966 0.38826284 0.70300001
0.60210723 0.38826284 0.70300001
0.60430479 0.38826284 0.70300001
0.60650229 0.38826284 0.70300001
0.60869986 0.38826284 0.70300001
0.61002845 0.38771054 0.70200002
0.61222285 0.38771054 0.70200002
0.61354208 0.38715824 0.70100003
0.61573339 0.38715824 0.70100003
0.6170432 0.38660595 0.70000005
0.6192314 0.38660595 0.70000005
0.62141955 0.38660595 0.70000005
0.62360775 0.38660595 0.70000005
0.6257959 0.38660595 0.70000005
0.62798411 0.38660595 0.70000005
0.63017225 0.38660595 0.70000005
0.63416713 0.38771054 0.70200002
0.6363616 0.38771054 0.70200002
0.63855606 0.38771054 0.70200002
0.64075047 0.38771054 0.70200002
0.64294493 0.38771054 0.70200002
0.64513934 0.38771054 0.70200002
0.64733374 0.38771054 0.70200002
0.64952821 0.38771054 0.70200002
0.65172261 0.38771054 0.70200002
0.65391707 0.38771054 0.70200002
0.65517688 0.38715824 0.70100003
0.65736818 0.38715824 0.70100003
0.65955949 0.38715824 0.70100003
0.66175079 0.38715824 0.70100003
0.66394204 0.38715824 0.70100003
0.66613334 0.38715824 0.70100003
0.66832465 0.38715824 0.70100003
0.67051595 0.38715824 0.70100003
0.67270726 0.38715824 0.70100003
0.67586136 0.38771054 0.70200002
0.67805576 0.38771054 0.70200002
0.68025017 0.38771054 0.70200002
0.68244463 0.38771054 0.70200002
0.68463904 0.38771054 0.70200002
0.6868335 0.38771054 0.70200002
0.68902797 0.38771054 0.70200002
0.69122237 0.38771054 0.70200002
0.69341677 0.38771054 0.70200002
0.69561124 0.38771054 0.70200002
0.69780564 0.38771054 0.70200002
0.70099723 0.38826284 0.70300001
0.7031948 0.38826284 0.70300001
0.7053923 0.38826284 0.70300001
-0.62329495 0.34824845 0.62700003
-0.62133497 0.34824845 0.62700003
-0.61937499 0.34824845 0.62700003
-0.61741501 0.34824845 0.62700003
-0.61545503 0.34824845 0.62700003
-0.61349505 0.34824845 0.62700003
-0.61153501 0.34824845 0.62700003
-0.61054724 0.34880388 0.62800002
-0.60761505 0.34824845 0.62700003
-0.60565507 0.34824845 0.62700003
-0.60369509 0.34824845 0.62700003
-0.60173512 0.34824845 0.62700003
-0.59977514 0.34824845 0.62700003
-0.59781516 0.34824845 0.62700003
-0.59585518 0.34824845 0.62700003
-0.5938952 0.34824845 0.62700003
-0.59099114 0.34769306 0.62600005
-0.58903426 0.34769306 0.62600005
-0.58707744 0.34769306 0.62600005
-0.58512056 0.34769306 0.62600005
-0.58316374 0.34769306 0.62600005
-0.58120686 0.34769306 0.62600005
-0.57832468 0.3471376 0.625
-0.57637089 0.3471376 0.625
-0.57441717 0.3471376 0.625
-0.57154751 0.34658217 0.62400001
-0.56959695 0.34658217 0.62400001
-0.56764632 0.34658217 0.62400001
-0.5656957 0.34658217 0.62400001
-0.56374514 0.34658217 0.62400001
-0.56179452 0.34658217 0.62400001
-0.5598439 0.34658217 0.62400001
-0.55699921 0.34602678 0.62300003
-0.55505174 0.34602678 0.62300003
-0.55310428 0.34602678 0.62300003
-0.55115682 0.34602678 0.62300003
-0.5492093 0.34602678 0.62300003
-0.54638344 0.34547135 0.62200004
-0.54443908 0.34547135 0.62200004
-0.54249471 0.34547135 0.62200004
-0.54055035 0.34547135 0.62200004
-0.53774011 0.34491596 0.62100005
-0.53579891 0.34491596 0.62100005
-0.53385764 0.34491596 0.62100005
-0.53191644 0.34491596 0.62100005
-0.52997524 0.34491596 0.62100005
-0.52803397 0.34491596 0.62100005
-0.52609277 0.34491596 0.62100005
-0.52499557 0.34547135 0.62200004
-0.5230512 0.34547135 0.62200004
-0.52110684 0.34547135 0.62200004
-0.51916254 0.34547135 0.62200004
-0.51721817 0.34547135 0.62200004
-0.51527381 0.34547135 0.62200004
-0.51332945 0.34547135 0.62200004
-0.51220721 0.34602678 0.62300003
-0.51025975 0.34602678 0.62300003
-0.50831228 0.34602678 0.62300003
-0.50636482 0.34602678 0.62300003
-0.50603664 0.3471376 0.625
-0.50408292 0.3471376 0.625
-0.50293261 0.34769306 0.62600005
-0.50177604 0.34824845 0.62700003
-0.49981603 0.34824845 0.62700003
-0.49785605 0.34824845 0.62700003
-0.49589607 0.34824845 0.62700003
-0.49472386 0.34880388 0.62800002
-0.49276075 0.34880388 0.62800002
-0.49392375 0.35102555 0.63200003
-0.49272653 0.35158098 0.63300002
-0.48997253 0.35102555 0.63200003
-0.48799694 0.35102555 0.63200003
-0.48679033 0.35158098 0.63300002
-0.48404571 0.35102555 0.63200003
-0.48207009 0.35102555 0.63200003
-0.48009449 0.35102555 0.63200003
-0.47811884 0.35102555 0.63200003
-0.47614324 0.35102555 0.63200003
-0.47491786 0.35158098 0.63300002
-0.47293913 0.35158098 0.63300002
-0.47096041 0.35158098 0.63300002
-0.46972254 0.35213637 0.634
-0.46774068 0.35213637 0.634
-0.46575883 0.35213637 0.634
-0.46377695 0.35213637 0.634
-0.46179509 0.35213637 0.634
-0.45981324 0.35213637 0.634
-0.45783135 0.35213637 0.634
-0.4558495 0.35213637 0.634
-0.45386764 0.35213637 0.634
-0.45188579 0.35213637 0.634
-0.44848469 0.35102555 0.63200003
-0.44650906 0.35102555 0.63200003
-0.44453347 0.35102555 0.63200003
-0.44255784 0.35102555 0.63200003
-0.44058225 0.35102555 0.63200003
-0.43860662 0.35102555 0.63200003
-0.43663102 0.35102555 0.63200003
-0.43465537 0.35102555 0.63200003
-0.43267977 0.35102555 0.63200003
-0.43070415 0.35102555 0.63200003
-0.42872855 0.35102555 0.63200003
-0.42675292 0.35102555 0.63200003
-0.42477733 0.35102555 0.63200003
-0.42413968 0.35213637 0.634
-0.42215782 0.35213637 0.634
-0.42017594 0.35213637 0.634
-0.41819409 0.35213637 0.634
-0.41621223 0.35213637 0.634
-0.41423035 0.35213637 0.634
-0.41224849 0.35213637 0.634
-0.41091377 0.35269183 0.63500005
-0.40892878 0.35269183 0.63500005
-0.4069438 0.35269183 0.63500005
-0.40559652 0.35324726 0.63600004
-0.40360841 0.35324726 0.63600004
-0.4016203 0.35324726 0.63600004
-0.39963219 0.35324726 0.63600004
-0.39764407 0.35324726 0.63600004
-0.39565596 0.35324726 0.63600004
-0.39366782 0.35324726 0.63600004
-0.39229554 0.35380265 0.63700002
-0.3903043 0.35380265 0.63700002
-0.38831306 0.35380265 0.63700002
-0.38632181 0.35380265 0.63700002
-0.38433057 0.35380265 0.63700002
-0.38233933 0.35380265 0.63700002
-0.38034809 0.35380265 0.63700002
-0.37835684 0.35380265 0.63700002
-0.3763656 0.35380265 0.63700002
-0.37437436 0.35380265 0.63700002
-0.37238315 0.35380265 0.63700002
-0.37039191 0.35380265 0.63700002
-0.36840066 0.35380265 0.63700002
-0.36640942 0.35380265 0.63700002
-0.36441818 0.35380265 0.63700002
-0.36242694 0.35380265 0.63700002
-0.36043569 0.35380265 0.63700002
-0.35844445 0.35380265 0.63700002
-0.35645321 0.35380265 0.63700002
-0.35446197 0.35380265 0.63700002
-0.35247073 0.35380265 0.63700002
-0.35047945 0.35380265 0.63700002
-0.34848821 0.35380265 0.63700002
-0.34704092 0.35435808 0.63800001
-0.34504655 0.35435808 0.63800001
-0.3435899 0.3549135 0.63900006
-0.342127 0.35546893 0.64000005
-0.34012637 0.35546893 0.64000005
-0.33865407 0.35602435 0.64100003
-0.33717552 0.35657975 0.64200002
-0.33516863 0.35657975 0.64200002
-0.33316177 0.35657975 0.64200002
-0.3316707 0.35713518 0.64300001
-0.32966071 0.35713518 0.64300001
-0.32765073 0.35713518 0.64300001
-0.3261472 0.3576906 0.64400005
-0.32413405 0.3576906 0.64400005
-0.32212093 0.3576906 0.64400005
-0.32010779 0.3576906 0.64400005
-0.31809467 0.3576906 0.64400005
-0.31608155 0.3576906 0.64400005
-0.31358072 0.35713518 0.64300001
-0.31157073 0.35713518 0.64300001
-0.30956075 0.35713518 0.64300001
-0.30755073 0.35713518 0.64300001
-0.30554074 0.35713518 0.64300001
-0.30353075 0.35713518 0.64300001
-0.30152076 0.35713518 0.64300001
-0.29951075 0.35713518 0.64300001
-0.29796344 0.3576906 0.64400005
-0.29595032 0.3576906 0.64400005
-0.29393721 0.3576906 0.64400005
-0.29192406 0.3576906 0.64400005
-0.28991094 0.3576906 0.64400005
-0.28789783 0.3576906 0.64400005
-0.28588471 0.3576906 0.64400005
-0.28387159 0.3576906 0.64400005
-0.28185847 0.3576906 0.64400005
-0.28027987 0.35824603 0.64500004
-0.27826363 0.35824603 0.64500004
-0.27624735 0.35824603 0.64500004
-0.27423111 0.35824603 0.64500004
-0.27221486 0.35824603 0.64500004
-0.27019861 0.35824603 0.64500004
-0.26818237 0.35824603 0.64500004
-0.26616612 0.35824603 0.64500004
-0.26537848 0.35991228 0.648
-0.26294643 0.35935685 0.64700001
-0.26092392 0.35935685 0.64700001
-0.25890145 0.35935685 0.64700001
-0.25687894 0.35935685 0.64700001
-0.25485641 0.35935685 0.64700001
-0.2528339 0.35935685 0.64700001
-0.25081143 0.35935685 0.64700001
-0.2484044 0.35880142 0.64600003
-0.24638502 0.35880142 0.64600003
-0.24436565 0.35880142 0.64600003
-0.24234627 0.35880142 0.64600003
-0.2403269 0.35880142 0.64600003
-0.23867641 0.35935685 0.64700001
-0.23665392 0.35935685 0.64700001
-0.23463142 0.35935685 0.64700001
-0.23296842 0.35991228 0.648
-0.23094279 0.35991228 0.648
-0.22891717 0.35991228 0.648
-0.22689153 0.35991228 0.648
-0.22486591 0.35991228 0.648
-0.22318418 0.3604677 0.64900005
-0.22115543 0.3604677 0.64900005
-0.21912669 0.3604677 0.64900005
-0.21709794 0.3604677 0.64900005
-0.21540056 0.36102313 0.65000004
-0.21336868 0.36102313 0.65000004
-0.21133681 0.36102313 0.65000004
-0.20930491 0.36102313 0.65000004
-0.20759191 0.36157852 0.65100002
-0.2055569 0.36157852 0.65100002
-0.20352191 0.36157852 0.65100002
-0.2014869 0.36157852 0.65100002
-0.19945189 0.36157852 0.65100002
-0.19741689 0.36157852 0.65100002
-0.195682 0.36213395 0.65200001
-0.19364388 0.36213395 0.65200001
-0.19160575 0.36213395 0.65200001
-0.18956763 0.36213395 0.65200001
