# .PCD v0.7 - Point Cloud Data file format
VERSION 0.7
FIELDS x y z
SIZE 4 4 4
TYPE F F F
COUNT 1 1 1
WIDTH 480
HEIGHT 1
VIEWPOINT 0 0 0 1 0 0 0
POINTS 480
DATA ascii
-0.84094656 0.58513618 0.83800006
-0.81616384 0.58255887 0.82589203
0.80399334 0.69936883 0.83160001
-0.85415864 0.59242839 0.86628139
-0.8197999 0.59311742 0.86284006
-0.78336692 0.59380215 0.85520482
-0.7732107 0.6030885 0.87248009
-0.33520746 0.64015192 0.87600011
-0.30018297 0.64067394 0.87671441
0.69878608 0.70882893 0.86292386
0.7405597 0.71398699 0.85967374
0.77933723 0.70928454 0.85921204
0.8173039 0.70842838 0.85931742
0.84610718 0.71301478 0.87199992
0.74306041 0.72101253 0.87283349
-0.89084083 0.59832108 0.89238465
-0.86475706 0.59825361 0.8896668
-0.82288438 0.59906191 0.88850003
-0.89435303 0.60392779 0.90775895
-0.86039168 0.60381758 0.90396404
-0.8195098 0.60523075 0.90251273
-0.77996051 0.60998946 0.90050948
-0.73850513 0.61009806 0.89999998
-0.70048404 0.61088824 0.89715862
-0.65879899 0.61438459 0.89830828
-0.62055212 0.61774701 0.90277457
-0.57914895 0.61836827 0.89579111
-0.53913951 0.62239623 0.89878833
-0.49927786 0.62569582 0.8971085
-0.46054047 0.62900609 0.89815837
-0.42076221 0.63388455 0.89921463
-0.38305098 0.63792193 0.89906925
-0.3385815 0.63808644 0.90063322
-0.30741411 0.63875937 0.8963843
-0.37286806 0.64074558 0.89928883
-0.34083205 0.64080018 0.89766043
-0.29646719 0.64233893 0.90106744
-0.25999978 0.64388806 0.90223229
-0.21992993 0.64639455 0.90038979
-0.17926173 0.64995104 0.90213388
-0.13979667 0.65362889 0.89985734
-0.10006041 0.65684068 0.90077454
-0.06150651 0.65743202 0.89976549
0.23576455 0.68144006 0.91633338
0.61984545 0.70698947 0.90168768
0.65911156 0.71009016 0.90252739
0.70058578 0.71140748 0.90156949
0.73877347 0.71596581 0.90070051
0.78083861 0.71737528 0.89851028
0.81973505 0.71603656 0.89601779
0.85467494 0.71760434 0.89860791
0.88156468 0.71939838 0.90400004
0.74853337 0.72156125 0.88886219
0.76933473 0.72100425 0.89569575
0.82123834 0.72092158 0.91333342
0.86216348 0.72144985 0.91036129
0.88559937 0.72230619 0.912
-0.76356071 0.47039771 0.9320001
-0.74418116 0.47271064 0.93362147
-0.70726961 0.47134423 0.93387502
-0.77906209 0.49897504 0.9530409
-0.74046642 0.49554718 0.95068932
-0.70993721 0.49002311 0.95414269
-0.9247843 0.54859918 0.95791304
-0.8984623 0.54445517 0.95470405
-0.860771 0.54632163 0.95343792
-0.82189065 0.54826254 0.95473206
-0.78097081 0.55067188 0.95615077
-0.74082685 0.55077463 0.95492333
-0.70445877 0.55511194 0.95736003
-0.65832651 0.55693132 0.95871413
-0.62494236 0.55719012 0.95766664
-0.93024927 0.58527398 0.95833337
-0.89995331 0.58132929 0.95180738
-0.85983878 0.58143991 0.94845098
-0.82046252 0.58095914 0.95259774
-0.78032941 0.57998347 0.95371985
-0.73991054 0.57976776 0.95205975
-0.70060879 0.57909572 0.953812
-0.66089058 0.57877576 0.95334107
-0.619551 0.57936728 0.95472521
-0.5971117 0.58053696 0.95899999
-0.5294084 0.59767348 0.95892847
-0.49769247 0.58822942 0.95846486
-0.45947269 0.58629662 0.95773351
-0.41939709 0.58245933 0.9554345
-0.38107839 0.58357763 0.95850289
-0.35484791 0.58395559 0.95899969
-0.93533027 0.60575342 0.94582599
-0.90157801 0.60709822 0.9375416
-0.85908043 0.60494989 0.93305916
-0.81914675 0.60837364 0.93817782
-0.78048873 0.61117339 0.9423328
-0.73978728 0.61087072 0.94148779
-0.70011801 0.6126371 0.93963528
-0.65975112 0.61355245 0.94076568
-0.62026644 0.61613435 0.94739252
-0.58012843 0.62299782 0.94376415
-0.53891176 0.61988729 0.94639719
-0.50060827 0.62129688 0.9461357
-0.46039352 0.62273335 0.94539016
-0.42023033 0.62435067 0.94565493
-0.38100472 0.62413007 0.95067209
-0.34221503 0.62861061 0.94987828
-0.30040812 0.63560492 0.95431966
-0.27048391 0.63680691 0.95744002
-0.16825254 0.63448447 0.95899981
-0.15612671 0.63695925 0.95900005
0.5901106 0.63481188 0.95800006
0.62052453 0.63013566 0.95525801
0.66081131 0.63184065 0.95704252
0.69877714 0.63112026 0.95479536
0.74258476 0.63197351 0.9574368
0.77920187 0.63229299 0.95028955
0.81915408 0.63467294 0.94746137
0.85618216 0.62962538 0.93064439
0.88749629 0.63901675 0.93380004
-0.40997285 0.64122659 0.92862511
-0.37751108 0.64133364 0.93075567
-0.33702335 0.64149052 0.93402338
-0.29891971 0.64373708 0.93531692
-0.25942537 0.6456911 0.94251704
-0.22008723 0.65044516 0.94360453
-0.17972317 0.64962226 0.94468212
-0.14032157 0.65282089 0.94366056
-0.10042871 0.65912241 0.94260901
-0.058790956 0.66150266 0.94259995
-0.019866252 0.6639725 0.94401395
0.020260639 0.66572893 0.94515002
0.059548669 0.67009866 0.94199997
0.097423606 0.67722338 0.93766665
0.14065647 0.67737585 0.92692292
0.177121 0.67798889 0.92425835
0.2060155 0.67882383 0.92500007
0.58094299 0.64836347 0.95882738
0.61875629 0.64603734 0.95865846
0.6668191 0.6566537 0.95751637
0.69884562 0.66011262 0.95540756
0.74030334 0.6584816 0.95797569
0.77835202 0.66223693 0.95378703
0.82036638 0.66178054 0.95218378
0.85915959 0.6597867 0.94387871
0.89718455 0.66362238 0.94139475
0.10526739 0.68144983 0.9465214
0.14051087 0.68283403 0.94752514
0.18110165 0.68454772 0.9488979
0.21929061 0.68583828 0.94514751
0.26147234 0.68743837 0.94194597
0.29966602 0.69017798 0.94049984
0.33871657 0.69449347 0.94201773
0.37985003 0.69553292 0.94396919
0.41970974 0.69252229 0.9434638
0.46012911 0.69722319 0.94282758
0.50027907 0.70128959 0.94379699
0.5401997 0.7059778 0.9425953
0.57937115 0.70728755 0.94366854
0.62087858 0.70922858 0.94575721
0.66193783 0.70512921 0.94768715
0.70018715 0.70455009 0.94634128
0.74026567 0.70342594 0.94716007
0.77954161 0.70448023 0.94665122
0.81945145 0.70402277 0.94692624
0.85938376 0.70072097 0.94854438
0.89957434 0.70078391 0.94585937
0.78148121 0.72022778 0.9230001
0.8230446 0.72112525 0.93182331
0.86214119 0.72213119 0.93355727
0.89676589 0.72436076 0.93588471
-0.96828568 0.5085575 0.9715814
-0.94108164 0.50881493 0.97006834
-0.89849961 0.50933915 0.9684636
-0.86133838 0.50693387 0.97004652
-0.82261044 0.50939733 0.96915692
-0.77885169 0.51822978 0.96741682
-0.73303014 0.512532 0.96436381
-0.7096566 0.50875783 0.97696286
-0.96799731 0.53983706 0.96917617
-0.94280666 0.53714967 0.96488768
-0.89867973 0.52559513 0.96326661
-0.85922444 0.52852285 0.96531868
-0.81856656 0.53096873 0.9661454
-0.77961874 0.53307563 0.96680534
-0.73828167 0.53618187 0.9717831
-0.7024585 0.54184204 0.98148274
-0.66036588 0.5505293 0.97382301
-0.62115008 0.55338562 0.97123808
-0.59589505 0.55794883 0.97400004
-0.4807626 0.55909455 0.97600007
-0.45628446 0.55850565 0.97616673
-0.41742864 0.55866903 0.97943479
-0.37742686 0.55511338 0.9817186
-0.34227112 0.55337751 0.98105794
-0.31384069 0.55619639 0.98670006
-0.96992755 0.5808872 0.97136682
-0.94667089 0.57849723 0.96345633
-0.60514987 0.56420523 0.98152643
-0.58020556 0.57788944 0.97045529
-0.54027671 0.57883418 0.9705072
-0.50117612 0.56840664 0.97251803
-0.46094474 0.56547374 0.97184783
-0.4207713 0.56329077 0.97390705
-0.37948549 0.56703115 0.96362734
-0.33643818 0.57837152 0.96530938
-0.30134466 0.57989961 0.97387952
-0.26040155 0.58539528 0.97154707
-0.21978645 0.5864988 0.97133368
-0.17968433 0.58752191 0.9731999
-0.13784398 0.58669561 0.97475374
-0.099576414 0.5870561 0.97227365
-0.061097268 0.58733261 0.97380126
-0.020125818 0.59176141 0.97769856
0.020093346 0.59441423 0.9850328
0.061097775 0.5948413 0.99023074
0.10241214 0.59485257 0.98696291
0.14072548 0.59597605 0.98135912
0.17724958 0.59712243 0.98292321
-0.96554273 0.60271281 0.96428579
-0.9581809 0.60159111 0.96300006
-0.60133272 0.60555398 0.96100003
-0.581002 0.60749131 0.96211064
-0.55303538 0.60445774 0.96128589
-0.33148971 0.6101774 0.96317381
-0.29992333 0.61490941 0.9638775
-0.25921923 0.61887354 0.96433735
-0.2200864 0.62022501 0.96726584
-0.18076429 0.61791736 0.96588594
-0.13997318 0.61935264 0.96799529
-0.09922415 0.61949968 0.96885824
-0.059810806 0.62094486 0.97170514
-0.019020585 0.62041283 0.97179598
0.021152288 0.62018901 0.97571093
0.060837835 0.61922622 0.9809314
0.099711969 0.61955327 0.98016524
0.13972056 0.61878592 0.97408289
0.18061404 0.61925298 0.97757965
0.21838002 0.61964595 0.98459131
0.25646138 0.62361825 0.99134928
0.29876944 0.6376518 0.98530763
0.32155722 0.63745272 0.98500007
0.36658713 0.63963276 0.97899997
-0.24325539 0.64110702 0.96300006
-0.21831167 0.64331722 0.96222234
-0.19960125 0.64423919 0.96100003
-0.131523 0.64476442 0.96438909
-0.099399522 0.65051025 0.9661696
-0.060161289 0.65174872 0.96775049
-0.018847242 0.65164763 0.96646702
0.021247577 0.65245879 0.96670097
0.061032102 0.65610987 0.97051549
0.099092558 0.66233319 0.97256249
0.13851678 0.66291285 0.97436953
0.18084748 0.66128349 0.97827286
0.22096476 0.66154259 0.97859573
0.26061484 0.65979254 0.98339647
0.30000657 0.66077054 0.98335344
0.33904818 0.65993625 0.98084313
0.3788639 0.66318738 0.97698152
0.41940752 0.66508967 0.97156668
0.45798263 0.66730899 0.96941906
0.49926275 0.6692279 0.97016376
0.54249525 0.6688692 0.96545911
0.57970136 0.66798818 0.96163911
0.61949354 0.66638172 0.9638595
0.6521154 0.66920549 0.96355557
0.73926014 0.67429477 0.96100008
0.11285657 0.6814366 0.96100008
0.14524846 0.68239427 0.96725011
0.17912114 0.68268788 0.9709999
0.2220666 0.68450505 0.96841931
0.26000413 0.68561506 0.97084618
0.30041108 0.68849945 0.97152197
0.34084764 0.69081283 0.97337788
0.37902927 0.68847692 0.96913254
0.41648802 0.68459898 0.96344417
0.46261778 0.68658382 0.96374649
0.50044835 0.68834102 0.9665271
0.53950506 0.69050288 0.96424967
0.58011007 0.69196934 0.96281356
0.61913216 0.69310147 0.96504188
0.65000111 0.68888336 0.96332705
-0.71628869 0.51547575 1.0120001
-0.72033978 0.52733678 1.029
-0.69518512 0.53869444 1.011116
-0.6665259 0.55324107 1.0117897
-0.63586497 0.55781198 1.0050001
-0.41491625 0.55600423 1.0197644
-0.3833825 0.54734582 1.0137557
-0.35478795 0.54652202 1
-0.66240984 0.56359452 1.0298948
-0.61594325 0.56930572 1.0153848
-0.58058488 0.57425761 1.0164798
-0.53802323 0.57387555 1.0157777
-0.49895096 0.57147902 1.0183638
-0.45816755 0.56743103 1.0220846
-0.4270927 0.56337082 1.0129715
-0.39813969 0.56045651 1
-0.29248875 0.57202196 1.0150001
-0.26965967 0.58171505 1.0211114
-0.73550057 0.54171389 1.0675263
-0.70345688 0.55229306 1.0497502
-0.67974967 0.55550128 1.0400001
-0.41986153 0.55832815 1.0545
-0.69034809 0.56671542 1.0641112
-0.66227943 0.57654214 1.0611002
-0.62826288 0.58436728 1.0578824
-0.58204943 0.58846402 1.0605003
-0.54152036 0.58666813 1.0660002
-0.5014683 0.57609254 1.0572606
-0.46101451 0.56651282 1.0485295
-0.42626512 0.56281191 1.0564446
-0.22187142 0.59712386 1.0560435
-0.18293452 0.59905696 1.0630001
-0.21093369 0.60256952 1.0593848
-0.18293455 0.60399425 1.063
-0.77087283 0.14574958 1.1139231
-0.75607842 0.13459221 1.116353
-0.80068535 0.55091989 1.1190001
-0.76789987 0.53927755 1.0965654
-0.7463491 0.54917902 1.0992415
-0.7433061 0.5640741 1.11675
-0.69521952 0.58375818 1.1033127
-0.66229534 0.59276593 1.1030362
-0.61929607 0.59347677 1.0897199
-0.57958454 0.59390658 1.0919574
-0.53998166 0.58983099 1.0950322
-0.49712682 0.58337593 1.0954167
-0.46664399 0.57840651 1.0888002
0.8378607 0.69412494 1.107
0.85190892 0.69362605 1.1040525
-0.76547086 0.15364283 1.1256365
-0.75148529 0.14689673 1.1428119
-0.687545 0.15788895 1.159
-0.65931612 0.15067859 1.1570836
-0.62694973 0.15197866 1.1564738
-0.81099069 0.18782382 1.1383159
-0.77786535 0.18079868 1.1345708
-0.74235386 0.17878325 1.1488916
-0.70040452 0.18019314 1.1562129
-0.65985137 0.18039513 1.152343
-0.61997348 0.17960143 1.1516352
-0.58443314 0.18410155 1.1548077
-0.81124777 0.21923365 1.1450802
-0.77943206 0.21889374 1.148451
-0.73900431 0.21995047 1.1537722
-0.70016974 0.21952046 1.153193
-0.65981138 0.22086242 1.1507483
-0.61919975 0.22128709 1.1514927
-0.58555031 0.21449889 1.1559428
-0.81175351 0.24539293 1.1569999
-0.77906191 0.24510774 1.1584667
-0.73840916 0.25871938 1.1555527
-0.69931281 0.25966248 1.1488373
-0.65938586 0.25935754 1.1474712
-0.61834037 0.26004085 1.1504703
-0.59739262 0.25999475 1.1581668
-0.76470655 0.31520268 1.159
-0.73746419 0.30261427 1.155831
-0.69979721 0.29901087 1.1496279
-0.66029793 0.29886654 1.1490688
-0.61926472 0.29967868 1.1521969
-0.59782237 0.29247296 1.1590002
-0.76740175 0.34331301 1.1586925
-0.7400682 0.33948573 1.154132
-0.69976187 0.33911234 1.1512505
-0.65961045 0.33881104 1.1490911
-0.61968958 0.33992547 1.1512413
-0.77261084 0.38499227 1.1555492
-0.73910469 0.37903741 1.1503612
-0.70004839 0.37964371 1.1505347
-0.65985167 0.38120863 1.1511149
-0.62124491 0.37903866 1.1526272
-0.77543718 0.41999331 1.1421007
-0.74030328 0.41979474 1.1465887
-0.70001239 0.4191193 1.1470999
-0.66117942 0.42040068 1.1506133
-0.62790883 0.42020658 1.1549542
-0.80673623 0.46992323 1.1546251
-0.77777719 0.45922735 1.1462154
-0.73917806 0.4596844 1.1468214
-0.70071423 0.46018758 1.1480241
-0.66120565 0.45961431 1.1506596
-0.62491399 0.46193072 1.154792
-0.80919528 0.5034399 1.1571559
-0.77967656 0.50015163 1.1509426
-0.73988813 0.49990761 1.1448138
-0.70074415 0.50001907 1.1456393
-0.66083956 0.49895111 1.1477344
-0.61892384 0.49962386 1.1490524
-0.59720349 0.50368893 1.1578
-0.81091648 0.53677756 1.1517779
-0.77967185 0.54032546 1.1438729
-0.74119914 0.5409925 1.1434807
-0.7007997 0.54089075 1.1454799
-0.66091442 0.54070216 1.1463679
-0.61911672 0.53932822 1.1481731
-0.59756452 0.53629178 1.1585001
-0.73702627 0.5688625 1.1386501
-0.69856471 0.57156116 1.1383871
-0.65890837 0.57689804 1.1358981
-0.62026405 0.58028078 1.1443669
-0.59307671 0.59141779 1.1494814
-0.53782505 0.59680992 1.1255001
-0.51057148 0.59327483 1.1287502
-0.64474988 0.60103762 1.1220001
-0.61765897 0.60138154 1.1252668
-0.57936692 0.60252637 1.1330003
-0.55422962 0.60296142 1.1388
0.87357962 0.71365488 1.1495003
0.89047891 0.71340728 1.1493638
0.90615749 0.72189385 1.1570001
-0.69535542 0.11644087 1.1940001
-0.76109546 0.12859222 1.1700001
-0.73688388 0.13670145 1.1718196
-0.70095193 0.13822335 1.1744721
-0.66133183 0.13422841 1.1784326
-0.61755377 0.14430301 1.1750441
-0.58220822 0.15341674 1.1828814
-0.5585677 0.157111 1.194
-0.7271058 0.16189583 1.1620001
-0.70964187 0.16201524 1.1628572
-0.60116893 0.16189583 1.1620001
-0.57063621 0.17257826 1.1690778
-0.55254692 0.18293169 1.183154
-0.57300782 0.22613113 1.1708196
-0.55095595 0.21655303 1.1850532
-0.84392792 0.27449855 1.182
-0.81887227 0.26579666 1.1737815
-0.78067029 0.26457587 1.166418
-0.7573306 0.27092117 1.1619999
-0.57981086 0.25961569 1.1780145
-0.55765003 0.24687545 1.196
-0.84992415 0.29446074 1.1952503
-0.81994563 0.3003639 1.1859053
-0.77990133 0.29868174 1.1693099
-0.75544155 0.29233047 1.1620001
-0.60116893 0.31122097 1.1620001
-0.58480227 0.30038106 1.1785842
-0.8472355 0.33571121 1.190842
-0.81824017 0.33743387 1.1780769
-0.78610259 0.33998942 1.1656379
-0.60116899 0.33820745 1.1619999
-0.58374542 0.34064332 1.1785347
-0.81223685 0.37305242 1.171059
-0.79083639 0.37445214 1.1645385
-0.60414255 0.38503531 1.1650771
-0.58461487 0.37831962 1.1819769
-0.60840589 0.42001778 1.1695068
-0.59016097 0.41946551 1.188341
-0.82245797 0.47673798 1.1620001
-0.60750955 0.4551467 1.1665083
-0.58978081 0.46206304 1.1840632
-0.82249433 0.49382919 1.1635004
-0.60116893 0.4839344 1.1620001
-0.58517772 0.49991509 1.1793941
-0.60116893 0.55589831 1.1620001
-0.58603209 0.53942984 1.1795983
-0.6016863 0.57078809 1.1630001
-0.58905274 0.57916522 1.1790098
-0.57392716 0.60582697 1.1857932
-0.5585677 0.61002856 1.194
0.87229246 0.71961623 1.1620001
0.91547084 0.71961623 1.1620001
0.87512177 0.72990906 1.1716001
0.91547084 0.72501349 1.1620001
-0.67099261 0.12445772 1.2
-0.61897051 0.13932119 1.2
-0.54465324 0.18391158 1.1999999
-0.54465324 0.21735434 1.1999999
-0.56323254 0.26194474 1.2
-0.5558008 0.24708126 1.2
-0.84935415 0.30839306 1.1999999
-0.57066429 0.28795579 1.1999999
-0.56747925 0.34130499 1.1999999
-0.56570983 0.37342072 1.1999999
-0.57809603 0.4142952 1.1999999
-0.57809603 0.46631733 1.1999999
-0.57809603 0.55364013 1.1999999
-0.58305049 0.58460569 1.1999999
-0.5558008 0.61309397 1.1999999
0.91382384 0.73200172 1.1999999
