# .PCD v0.7 - Point Cloud Data file format
VERSION 0.7
FIELDS x y z
SIZE 4 4 4
TYPE F F F
COUNT 1 1 1
WIDTH 1434
HEIGHT 1
VIEWPOINT 0 0 0 1 0 0 0
POINTS 1434
DATA ascii
0.21986727 0.64389503 0.74800003
0.22248052 0.64475584 0.74900001
0.22479984 0.64475584 0.74900001
0.22772563 0.64647752 0.75100005
0.23005113 0.64647752 0.75100005
0.23268606 0.64733833 0.75200003
0.23470217 0.64647752 0.75100005
0.23702769 0.64647752 0.75100005
0.23935319 0.64647752 0.75100005
0.2416787 0.64647752 0.75100005
0.24400422 0.64647752 0.75100005
0.24632972 0.64647752 0.75100005
0.24865523 0.64647752 0.75100005
0.25098073 0.64647752 0.75100005
0.25364357 0.64733833 0.75200003
0.25597218 0.64733833 0.75200003
0.25830078 0.64733833 0.75200003
0.26028281 0.64647752 0.75100005
0.26260832 0.64647752 0.75100005
0.26422825 0.64475584 0.74900001
0.26654759 0.64475584 0.74900001
0.2688669 0.64475584 0.74900001
0.2711862 0.64475584 0.74900001
0.27350554 0.64475584 0.74900001
0.27582487 0.64475584 0.74900001
0.27814418 0.64475584 0.74900001
0.28046349 0.64475584 0.74900001
0.28278282 0.64475584 0.74900001
0.28586343 0.64647752 0.75100005
0.28818893 0.64647752 0.75100005
0.29090127 0.64733833 0.75200003
0.29322991 0.64733833 0.75200003
0.29555851 0.64733833 0.75200003
0.29828325 0.64819914 0.75300002
0.30061495 0.64819914 0.75300002
0.30334896 0.64905995 0.75400001
0.30568376 0.64905995 0.75400001
0.3084271 0.64992082 0.75500005
0.310765 0.64992082 0.75500005
0.3135176 0.65078163 0.75600004
0.3158586 0.65078163 0.75600004
0.3186205 0.65164244 0.75700003
0.32096457 0.65164244 0.75700003
0.32373574 0.65250325 0.75800002
0.32608294 0.65250325 0.75800002
0.32886344 0.65336412 0.75900006
0.33121371 0.65336412 0.75900006
0.33356398 0.65336412 0.75900006
0.33591431 0.65336412 0.75900006
0.33871025 0.65422493 0.76000005
0.34106362 0.65422493 0.76000005
0.34432071 0.65594655 0.76200002
0.34668028 0.65594655 0.76200002
0.34903985 0.65594655 0.76200002
0.35139945 0.65594655 0.76200002
0.35375902 0.65594655 0.76200002
0.35658592 0.65680736 0.76300001
0.35894862 0.65680736 0.76300001
0.36178485 0.65766823 0.76400006
0.36415061 0.65766823 0.76400006
0.36651638 0.65766823 0.76400006
0.36888215 0.65766823 0.76400006
0.37173381 0.65852904 0.76500005
0.37410268 0.65852904 0.76500005
0.37647155 0.65852904 0.76500005
0.37884042 0.65852904 0.76500005
0.38170761 0.65938985 0.76600003
0.38407955 0.65938985 0.76600003
0.38645151 0.65938985 0.76600003
0.38882351 0.65938985 0.76600003
0.39119542 0.65938985 0.76600003
0.39408121 0.66025066 0.76700002
0.39645624 0.66025066 0.76700002
0.3993513 0.66111147 0.76800001
0.4017294 0.66111147 0.76800001
0.40515998 0.66283315 0.77000004
0.40754429 0.66283315 0.77000004
0.41046104 0.66369396 0.77100003
0.4128485 0.66369396 0.77100003
0.41523591 0.66369396 0.77100003
0.41762337 0.66369396 0.77100003
0.42055556 0.66455477 0.77200001
0.4229461 0.66455477 0.77200001
0.42588761 0.66541559 0.77300006
0.42828125 0.66541559 0.77300006
0.43123201 0.66627645 0.77400005
0.43362877 0.66627645 0.77400005
0.43658885 0.66713727 0.77500004
0.43898866 0.66713727 0.77500004
0.44195804 0.66799808 0.77600002
0.44436094 0.66799808 0.77600002
0.44676387 0.66799808 0.77600002
0.45032445 0.6697197 0.77800006
0.45273358 0.6697197 0.77800006
0.45631269 0.67144132 0.78000003
0.45872802 0.67144132 0.78000003
0.46114334 0.67144132 0.78000003
0.46355864 0.67144132 0.78000003
0.46597397 0.67144132 0.78000003
0.46838927 0.67144132 0.78000003
0.4708046 0.67144132 0.78000003
0.47321987 0.67144132 0.78000003
0.47563523 0.67144132 0.78000003
0.47805056 0.67144132 0.78000003
0.48108181 0.67230213 0.78100002
0.48350024 0.67230213 0.78100002
0.48591861 0.67230213 0.78100002
0.48833704 0.67230213 0.78100002
0.49075544 0.67230213 0.78100002
0.49317387 0.67230213 0.78100002
0.49559224 0.67230213 0.78100002
0.49864838 0.673163 0.78200006
0.5010699 0.673163 0.78200006
0.50349134 0.673163 0.78200006
0.5059129 0.673163 0.78200006
0.50963444 0.67488462 0.78400004
0.51206219 0.67488462 0.78400004
0.51448983 0.67488462 0.78400004
0.51691759 0.67488462 0.78400004
0.51934522 0.67488462 0.78400004
0.52177292 0.67488462 0.78400004
0.52486926 0.67574543 0.78500003
0.52730006 0.67574543 0.78500003
0.52973086 0.67574543 0.78500003
0.53216165 0.67574543 0.78500003
0.53459245 0.67574543 0.78500003
0.53702325 0.67574543 0.78500003
0.53945404 0.67574543 0.78500003
0.54188478 0.67574543 0.78500003
0.54500902 0.67660624 0.78600001
0.54813945 0.67746711 0.78700006
0.55057639 0.67746711 0.78700006
0.55371612 0.67832792 0.78800005
0.55615616 0.67832792 0.78800005
0.55859625 0.67832792 0.78800005
0.56103629 0.67832792 0.78800005
0.56490654 0.68004954 0.79000002
0.56735283 0.68004954 0.79000002
0.56979913 0.68004954 0.79000002
0.57224542 0.68004954 0.79000002
0.57469165 0.68004954 0.79000002
0.57713795 0.68004954 0.79000002
0.57958418 0.68004954 0.79000002
0.58203048 0.68004954 0.79000002
0.58447677 0.68004954 0.79000002
0.58692306 0.68004954 0.79000002
0.59011537 0.68091035 0.79100001
0.5925647 0.68091035 0.79100001
0.5950141 0.68091035 0.79100001
0.5982188 0.68177122 0.79200006
0.60067129 0.68177122 0.79200006
0.60312378 0.68177122 0.79200006
0.60557628 0.68177122 0.79200006
0.60879642 0.68263203 0.79300004
0.61125201 0.68263203 0.79300004
0.61448145 0.68349284 0.79400003
0.61694014 0.68349284 0.79400003
0.62173909 0.68607533 0.79700005
0.62420702 0.68607533 0.79700005
0.62746131 0.68693614 0.79800004
0.62993234 0.68693614 0.79800004
0.63478088 0.68951863 0.80100006
0.63726121 0.68951863 0.80100006
0.64054018 0.69037944 0.80200005
0.64302367 0.69037944 0.80200005
0.64631194 0.69124025 0.80300003
0.64960647 0.69210106 0.80400002
0.65209603 0.69210106 0.80400002
0.65539992 0.69296193 0.80500007
0.65789258 0.69296193 0.80500007
0.66038537 0.69296193 0.80500007
0.6628781 0.69296193 0.80500007
0.6670239 0.69468355 0.80700004
0.66952282 0.69468355 0.80700004
0.67202169 0.69468355 0.80700004
0.67452067 0.69468355 0.80700004
0.67701954 0.69468355 0.80700004
0.67951846 0.69468355 0.80700004
0.68201739 0.69468355 0.80700004
0.68451631 0.69468355 0.80700004
0.68701524 0.69468355 0.80700004
0.68951416 0.69468355 0.80700004
0.69201308 0.69468355 0.80700004
0.69279081 0.69296193 0.80500007
0.69528353 0.69296193 0.80500007
0.69690937 0.69210106 0.80400002
0.69939905 0.69210106 0.80400002
0.70101565 0.69124025 0.80300003
0.70350218 0.69124025 0.80300003
0.70598876 0.69124025 0.80300003
0.70759296 0.69037944 0.80200005
0.71007645 0.69037944 0.80200005
0.71255988 0.69037944 0.80200005
0.71504331 0.69037944 0.80200005
0.71752673 0.69037944 0.80200005
0.72001016 0.69037944 0.80200005
0.72249365 0.69037944 0.80200005
0.72497708 0.69037944 0.80200005
0.7274605 0.69037944 0.80200005
0.72994393 0.69037944 0.80200005
0.73242736 0.69037944 0.80200005
0.73491079 0.69037944 0.80200005
0.73739427 0.69037944 0.80200005
0.73987764 0.69037944 0.80200005
0.74236113 0.69037944 0.80200005
0.74484456 0.69037944 0.80200005
0.74732798 0.69037944 0.80200005
0.74981141 0.69037944 0.80200005
0.75229484 0.69037944 0.80200005
0.75477833 0.69037944 0.80200005
0.75726169 0.69037944 0.80200005
0.75974518 0.69037944 0.80200005
0.76222861 0.69037944 0.80200005
0.76471204 0.69037944 0.80200005
0.76719552 0.69037944 0.80200005
0.7687192 0.68951863 0.80100006
0.77119958 0.68951863 0.80100006
0.77367991 0.68951863 0.80100006
0.77616024 0.68951863 0.80100006
0.77864057 0.68951863 0.80100006
-0.64425737 0.55463588 0.64200002
-0.64226931 0.55463588 0.64200002
-0.64028132 0.55463588 0.64200002
-0.63829339 0.55463588 0.64200002
-0.63630533 0.55463588 0.64200002
-0.6343174 0.55463588 0.64200002
-0.6323294 0.55463588 0.64200002
-0.63034141 0.55463588 0.64200002
-0.62835342 0.55463588 0.64200002
-0.62636542 0.55463588 0.64200002
-0.62437743 0.55463588 0.64200002
-0.62238944 0.55463588 0.64200002
-0.62136781 0.55549979 0.64300001
-0.61937672 0.55549979 0.64300001
-0.61738563 0.55549979 0.64300001
-0.61539453 0.55549979 0.64300001
-0.61340344 0.55549979 0.64300001
-0.61141241 0.55549979 0.64300001
-0.61036909 0.55636376 0.64400005
-0.60837495 0.55636376 0.64400005
-0.60732234 0.55722767 0.64500004
-0.60532504 0.55722767 0.64500004
-0.60426319 0.55809158 0.64600003
-0.60226279 0.55809158 0.64600003
-0.6002624 0.55809158 0.64600003
-0.59826201 0.55809158 0.64600003
-0.59626168 0.55809158 0.64600003
-0.59426129 0.55809158 0.64600003
-0.5922609 0.55809158 0.64600003
-0.59117424 0.55895549 0.64700001
-0.58917081 0.55895549 0.64700001
-0.58716732 0.55895549 0.64700001
-0.58516383 0.55895549 0.64700001
-0.58316034 0.55895549 0.64700001
-0.58115685 0.55895549 0.64700001
-0.58004856 0.5598194 0.648
-0.57804197 0.5598194 0.648
-0.57603544 0.5598194 0.648
-0.57402885 0.5598194 0.648
-0.57202232 0.5598194 0.648
-0.57001573 0.5598194 0.648
-0.56888574 0.56068331 0.64900005
-0.56687605 0.56068331 0.64900005
-0.56486642 0.56068331 0.64900005
-0.56285673 0.56068331 0.64900005
-0.5608471 0.56068331 0.64900005
-0.55969852 0.56154722 0.65000004
-0.55768573 0.56154722 0.65000004
-0.55567294 0.56154722 0.65000004
-0.55366021 0.56154722 0.65000004
-0.55164742 0.56154722 0.65000004
-0.5496347 0.56154722 0.65000004
-0.54762191 0.56154722 0.65000004
-0.54560918 0.56154722 0.65000004
-0.54359639 0.56154722 0.65000004
-0.54158366 0.56154722 0.65000004
-0.53957087 0.56154722 0.65000004
-0.53755808 0.56154722 0.65000004
-0.53554535 0.56154722 0.65000004
-0.53353256 0.56154722 0.65000004
-0.53151983 0.56154722 0.65000004
-0.52950704 0.56154722 0.65000004
-0.52830583 0.56241113 0.65100002
-0.52709842 0.56327504 0.65200001
-0.52507949 0.56327504 0.65200001
-0.52386278 0.56413901 0.65300006
-0.52184069 0.56413901 0.65300006
-0.51981866 0.56413901 0.65300006
-0.51779664 0.56413901 0.65300006
-0.51656443 0.56500292 0.65400004
-0.51453924 0.56500292 0.65400004
-0.5132978 0.56586683 0.65500003
-0.51126951 0.56586683 0.65500003
-0.50924128 0.56586683 0.65500003
-0.50721306 0.56586683 0.65500003
-0.50518477 0.56586683 0.65500003
-0.50315654 0.56586683 0.65500003
-0.50112832 0.56586683 0.65500003
-0.49910009 0.56586683 0.65500003
-0.49707183 0.56586683 0.65500003
-0.49504361 0.56586683 0.65500003
-0.49301535 0.56586683 0.65500003
-0.49098709 0.56586683 0.65500003
-0.48895887 0.56586683 0.65500003
-0.48693061 0.56586683 0.65500003
-0.48490238 0.56586683 0.65500003
-0.48287413 0.56586683 0.65500003
-0.4808459 0.56586683 0.65500003
-0.47881764 0.56586683 0.65500003
-0.47678941 0.56586683 0.65500003
-0.47548598 0.56673074 0.65600002
-0.47345462 0.56673074 0.65600002
-0.47214192 0.56759465 0.65700001
-0.47010747 0.56759465 0.65700001
-0.46807304 0.56759465 0.65700001
-0.46603861 0.56759465 0.65700001
-0.46471047 0.56845862 0.65800005
-0.46267292 0.56845862 0.65800005
-0.46133545 0.56932253 0.65900004
-0.45999175 0.57018644 0.66000003
-0.457948 0.57018644 0.66000003
-0.4559043 0.57018644 0.66000003
-0.45386055 0.57018644 0.66000003
-0.45250142 0.57105035 0.66100001
-0.45045459 0.57105035 0.66100001
-0.44976455 0.57277817 0.66300005
-0.44771153 0.57277817 0.66300005
-0.4456585 0.57277817 0.66300005
-0.44360551 0.57277817 0.66300005
-0.44221845 0.57364208 0.66400003
-0.44016236 0.57364208 0.66400003
-0.43810624 0.57364208 0.66400003
-0.43605015 0.57364208 0.66400003
-0.433994 0.57364208 0.66400003
-0.43128741 0.57277817 0.66300005
-0.42923439 0.57277817 0.66300005
-0.42718136 0.57277817 0.66300005
-0.42512837 0.57277817 0.66300005
-0.42307532 0.57277817 0.66300005
-0.42102233 0.57277817 0.66300005
-0.4189693 0.57277817 0.66300005
-0.41691631 0.57277817 0.66300005
-0.41486326 0.57277817 0.66300005
-0.41281027 0.57277817 0.66300005
-0.41075724 0.57277817 0.66300005
-0.40870422 0.57277817 0.66300005
-0.40665123 0.57277817 0.66300005
-0.40459818 0.57277817 0.66300005
-0.40315235 0.57364208 0.66400003
-0.40109622 0.57364208 0.66400003
-0.39904013 0.57364208 0.66400003
-0.39698398 0.57364208 0.66400003
-0.39552265 0.57450598 0.66500002
-0.39346343 0.57450598 0.66500002
-0.39140421 0.57450598 0.66500002
-0.38934502 0.57450598 0.66500002
-0.3872858 0.57450598 0.66500002
-0.38522661 0.57450598 0.66500002
-0.38316739 0.57450598 0.66500002
-0.38110819 0.57450598 0.66500002
-0.37904897 0.57450598 0.66500002
-0.37698975 0.57450598 0.66500002
-0.37493056 0.57450598 0.66500002
-0.37287134 0.57450598 0.66500002
-0.37081215 0.57450598 0.66500002
-0.36930743 0.57536989 0.66600001
-0.36724514 0.57536989 0.66600001
-0.36518282 0.57536989 0.66600001
-0.36312056 0.57536989 0.66600001
-0.36105824 0.57536989 0.66600001
-0.35899591 0.57536989 0.66600001
-0.35800549 0.57709777 0.66800004
-0.355937 0.57709777 0.66800004
-0.35492799 0.57882559 0.67000002
-0.3539066 0.58055347 0.67200005
-0.35182574 0.58055347 0.67200005
-0.35026526 0.58141738 0.67300004
-0.34818131 0.58141738 0.67300004
-0.34661156 0.58228129 0.67400002
-0.34452447 0.58228129 0.67400002
-0.34294549 0.5831452 0.67500001
-0.3408553 0.5831452 0.67500001
-0.33926705 0.58400917 0.67600006
-0.33717376 0.58400917 0.67600006
-0.33557615 0.58487308 0.67700005
-0.33347979 0.58487308 0.67700005
-0.33187291 0.58573699 0.67800003
-0.32977346 0.58573699 0.67800003
-0.32767397 0.58573699 0.67800003
-0.32557452 0.58573699 0.67800003
-0.32395217 0.58660084 0.67900002
-0.32184958 0.58660084 0.67900002
-0.31927612 0.58573699 0.67800003
-0.31717664 0.58573699 0.67800003
-0.31507719 0.58573699 0.67800003
-0.31343934 0.58660084 0.67900002
-0.31133679 0.58660084 0.67900002
-0.30968964 0.58746475 0.68000001
-0.30758399 0.58746475 0.68000001
-0.3054783 0.58746475 0.68000001
-0.30337265 0.58746475 0.68000001
-0.30171007 0.58832872 0.68100005
-0.29960132 0.58832872 0.68100005
-0.29749256 0.58832872 0.68100005
-0.29538381 0.58832872 0.68100005
-0.29327506 0.58832872 0.68100005
-0.29116631 0.58832872 0.68100005
-0.28948203 0.58919263 0.68200004
-0.28737015 0.58919263 0.68200004
-0.28525829 0.58919263 0.68200004
-0.28314644 0.58919263 0.68200004
-0.28103462 0.58919263 0.68200004
-0.27933174 0.59005654 0.68300003
-0.27721679 0.59005654 0.68300003
-0.27550462 0.59092045 0.68400002
-0.27338657 0.59092045 0.68400002
-0.27126852 0.59092045 0.68400002
-0.26915047 0.59092045 0.68400002
-0.26742285 0.59178442 0.68500006
-0.2653017 0.59178442 0.68500006
-0.26318058 0.59178442 0.68500006
-0.26105943 0.59178442 0.68500006
-0.25893831 0.59178442 0.68500006
-0.25681716 0.59178442 0.68500006
-0.25469604 0.59178442 0.68500006
-0.25220615 0.59092045 0.68400002
-0.2500881 0.59092045 0.68400002
-0.24797004 0.59092045 0.68400002
-0.24585201 0.59092045 0.68400002
-0.24373397 0.59092045 0.68400002
-0.24161594 0.59092045 0.68400002
-0.23949789 0.59092045 0.68400002
-0.23737985 0.59092045 0.68400002
-0.23526178 0.59092045 0.68400002
-0.23314375 0.59092045 0.68400002
-0.23102571 0.59092045 0.68400002
-0.22890766 0.59092045 0.68400002
-0.2271212 0.59178442 0.68500006
-0.22500007 0.59178442 0.68500006
-0.22287893 0.59178442 0.68500006
-0.2207578 0.59178442 0.68500006
-0.21895583 0.59264833 0.68600005
-0.21683158 0.59264833 0.68600005
-0.21470734 0.59264833 0.68600005
-0.21258311 0.59264833 0.68600005
-0.21076566 0.59351224 0.68700004
-0.20863833 0.59351224 0.68700004
-0.20681159 0.59437615 0.68800002
-0.20468116 0.59437615 0.68800002
-0.20255074 0.59437615 0.68800002
-0.20071159 0.59524006 0.68900001
-0.19857807 0.59524006 0.68900001
-0.19644454 0.59524006 0.68900001
-0.19431102 0.59524006 0.68900001
-0.1921775 0.59524006 0.68900001
-0.19004397 0.59524006 0.68900001
-0.18791045 0.59524006 0.68900001
-0.18577693 0.59524006 0.68900001
-0.18390995 0.59610403 0.69000006
-0.18177332 0.59610403 0.69000006
-0.1796367 0.59610403 0.69000006
-0.17750007 0.59610403 0.69000006
-0.17536345 0.59610403 0.69000006
-0.17322683 0.59610403 0.69000006
-0.17109022 0.59610403 0.69000006
-0.16895358 0.59610403 0.69000006
-0.16705872 0.59696794 0.69100004
-0.16539633 0.59869576 0.69300002
-0.16325043 0.59869576 0.69300002
-0.16133697 0.59955966 0.69400001
-0.15918797 0.59955966 0.69400001
-0.15726526 0.60042357 0.69500005
-0.15511316 0.60042357 0.69500005
-0.15296105 0.60042357 0.69500005
-0.15080893 0.60042357 0.69500005
-0.14908461 0.60215139 0.69700003
-0.14692633 0.60215139 0.69700003
-0.14497572 0.6030153 0.69800001
-0.14281432 0.6030153 0.69800001
-0.14085445 0.60387927 0.69900006
-0.13868997 0.60387927 0.69900006
-0.1369161 0.60560709 0.70100003
-0.1347454 0.60560709 0.70100003
-0.13257472 0.60560709 0.70100003
-0.13059007 0.606471 0.70200002
-0.12841628 0.606471 0.70200002
-0.12642233 0.60733491 0.70300001
-0.12424545 0.60733491 0.70300001
-0.12224222 0.60819888 0.70400006
-0.12006225 0.60819888 0.70400006
-0.11788227 0.60819888 0.70400006
-0.11570229 0.60819888 0.70400006
-0.11368357 0.60906279 0.70500004
-0.11150051 0.60906279 0.70500004
-0.10931744 0.60906279 0.70500004
-0.10713436 0.60906279 0.70500004
-0.10495129 0.60906279 0.70500004
-0.10276822 0.60906279 0.70500004
-0.10058516 0.60906279 0.70500004
-0.098402075 0.60906279 0.70500004
-0.096355483 0.6099267 0.70600003
-0.094169319 0.6099267 0.70600003
-0.091983154 0.6099267 0.70600003
-0.089924172 0.61079061 0.70700002
-0.087734908 0.61079061 0.70700002
-0.085666642 0.61165452 0.708
-0.083474278 0.61165452 0.708
-0.081281923 0.61165452 0.708
-0.07908956 0.61165452 0.708
-0.077005818 0.61251849 0.70900005
-0.074810356 0.61251849 0.70900005
-0.072614908 0.61251849 0.70900005
-0.070419446 0.61251849 0.70900005
-0.068320215 0.61338234 0.71000004
-0.06612166 0.61338234 0.71000004
-0.064013138 0.61424625 0.71100003
-0.061811492 0.61424625 0.71100003
-0.059693675 0.61511016 0.71200001
-0.057488933 0.61511016 0.71200001
-0.055361833 0.61597413 0.71300006
-0.053228542 0.61683804 0.71400005
-0.051017597 0.61683804 0.71400005
-0.048875015 0.61770195 0.71500003
-0.046660978 0.61770195 0.71500003
-0.044509105 0.61856586 0.71600002
-0.042291973 0.61856586 0.71600002
-0.040130809 0.61942977 0.71700001
-0.037910581 0.61942977 0.71700001
-0.035690352 0.61942977 0.71700001
-0.03347012 0.61942977 0.71700001
-0.031249892 0.61942977 0.71700001
-0.029029662 0.61942977 0.71700001
-0.026809432 0.61942977 0.71700001
-0.024589203 0.61942977 0.71700001
-0.022368973 0.61942977 0.71700001
-0.020148745 0.61942977 0.71700001
-0.017928515 0.61942977 0.71700001
-0.015708286 0.61942977 0.71700001
-0.013488056 0.61942977 0.71700001
-0.011267827 0.61942977 0.71700001
-0.0090475976 0.61942977 0.71700001
-0.0068273679 0.61942977 0.71700001
-0.0046071387 0.61942977 0.71700001
-0.0023869092 0.61942977 0.71700001
-0.00016667982 0.61942977 0.71700001
0.0020535495 0.61942977 0.71700001
0.0042737788 0.61942977 0.71700001
0.006494008 0.61942977 0.71700001
0.0087142373 0.61942977 0.71700001
0.010934467 0.61942977 0.71700001
0.013154697 0.61942977 0.71700001
0.015396371 0.62029374 0.71800005
0.017619697 0.62029374 0.71800005
0.019870659 0.62115765 0.71900004
0.022097081 0.62115765 0.71900004
0.024357334 0.62202156 0.72000003
0.026586853 0.62202156 0.72000003
0.028816372 0.62202156 0.72000003
0.031045889 0.62202156 0.72000003
0.033275407 0.62202156 0.72000003
0.035554241 0.62288547 0.72100002
0.037786856 0.62288547 0.72100002
0.040019471 0.62288547 0.72100002
0.042252086 0.62288547 0.72100002
0.044484701 0.62288547 0.72100002
0.046652526 0.62202156 0.72000003
0.048882045 0.62202156 0.72000003
0.05111156 0.62202156 0.72000003
0.053341083 0.62202156 0.72000003
0.055570599 0.62202156 0.72000003
0.057800122 0.62202156 0.72000003
0.060029637 0.62202156 0.72000003
0.06225916 0.62202156 0.72000003
0.064488679 0.62202156 0.72000003
0.066810861 0.62288547 0.72100002
0.069043472 0.62288547 0.72100002
0.071276091 0.62288547 0.72100002
0.073508702 0.62288547 0.72100002
0.075846381 0.62374943 0.72200006
0.078082092 0.62374943 0.72200006
0.080317803 0.62374943 0.72200006
0.08266785 0.62461334 0.72300005
0.084906667 0.62461334 0.72300005
0.08714547 0.62461334 0.72300005
0.08938428 0.62461334 0.72300005
0.09174981 0.62547725 0.72400004
0.093861893 0.62461334 0.72300005
0.096100703 0.62461334 0.72300005
0.09833952 0.62461334 0.72300005
0.10057832 0.62461334 0.72300005
0.10267492 0.62374943 0.72200006
0.10491063 0.62374943 0.72200006
0.10699794 0.62288547 0.72100002
0.10923056 0.62288547 0.72100002
0.11146317 0.62288547 0.72100002
0.11369579 0.62288547 0.72100002
0.11592841 0.62288547 0.72100002
0.11816102 0.62288547 0.72100002
0.12039363 0.62288547 0.72100002
0.12262625 0.62288547 0.72100002
0.12485887 0.62288547 0.72100002
0.12709148 0.62288547 0.72100002
0.12932409 0.62288547 0.72100002
0.1315567 0.62288547 0.72100002
0.13397489 0.62374943 0.72200006
0.13621062 0.62374943 0.72200006
0.13863808 0.62461334 0.72300005
0.14087687 0.62461334 0.72300005
0.14331363 0.62547725 0.72400004
0.14555554 0.62547725 0.72400004
0.14779745 0.62547725 0.72400004
0.15003935 0.62547725 0.72400004
0.15249158 0.62634116 0.72500002
0.15473659 0.62634116 0.72500002
0.15698159 0.62634116 0.72500002
0.1592266 0.62634116 0.72500002
0.1616943 0.62720507 0.72600001
0.16394241 0.62720507 0.72600001
0.16641943 0.62806898 0.72700006
0.16890264 0.62893289 0.72800004
0.17115693 0.62893289 0.72800004
0.17388763 0.63066071 0.73000002
0.1761481 0.63066071 0.73000002
0.17865297 0.63152462 0.73100001
0.18091656 0.63152462 0.73100001
0.1839319 0.63411641 0.73400003
0.18620478 0.63411641 0.73400003
0.18899122 0.63584429 0.73600006
0.19127029 0.63584429 0.73600006
0.19539018 0.64189166 0.74300003
0.1976909 0.64189166 0.74300003
0.20052999 0.64361954 0.74500006
0.20283692 0.64361954 0.74500006
0.20541921 0.64448345 0.74600005
0.20800769 0.64534736 0.74700004
0.21032082 0.64534736 0.74700004
0.21291861 0.64621127 0.74800003
0.21523483 0.64621127 0.74800003
0.21755105 0.64621127 0.74800003
0.21986727 0.64621127 0.74800003
0.22248052 0.64707518 0.74900001
0.22479984 0.64707518 0.74900001
0.22772563 0.64880306 0.75100005
0.23005113 0.64880306 0.75100005
0.23268606 0.64966697 0.75200003
0.23470217 0.64880306 0.75100005
0.23702769 0.64880306 0.75100005
0.23935319 0.64880306 0.75100005
0.2416787 0.64880306 0.75100005
0.24400422 0.64880306 0.75100005
0.24632972 0.64880306 0.75100005
0.24865523 0.64880306 0.75100005
0.25098073 0.64880306 0.75100005
0.25364357 0.64966697 0.75200003
0.25597218 0.64966697 0.75200003
0.25830078 0.64966697 0.75200003
0.26028281 0.64880306 0.75100005
0.26260832 0.64880306 0.75100005
0.26422825 0.64707518 0.74900001
0.26654759 0.64707518 0.74900001
0.2688669 0.64707518 0.74900001
0.2711862 0.64707518 0.74900001
0.27350554 0.64707518 0.74900001
0.27582487 0.64707518 0.74900001
0.27814418 0.64707518 0.74900001
0.28046349 0.64707518 0.74900001
0.28278282 0.64707518 0.74900001
0.28586343 0.64880306 0.75100005
0.28818893 0.64880306 0.75100005
0.29090127 0.64966697 0.75200003
0.29322991 0.64966697 0.75200003
0.29555851 0.64966697 0.75200003
0.29828325 0.65053087 0.75300002
0.30061495 0.65053087 0.75300002
0.30334896 0.65139478 0.75400001
0.30568376 0.65139478 0.75400001
0.3084271 0.65225875 0.75500005
0.310765 0.65225875 0.75500005
0.3135176 0.65312266 0.75600004
0.3158586 0.65312266 0.75600004
0.3186205 0.65398651 0.75700003
0.32096457 0.65398651 0.75700003
0.32373574 0.65485042 0.75800002
0.32608294 0.65485042 0.75800002
0.32886344 0.65571439 0.75900006
0.33121371 0.65571439 0.75900006
0.33356398 0.65571439 0.75900006
0.33591431 0.65571439 0.75900006
0.33871025 0.6565783 0.76000005
0.34106362 0.6565783 0.76000005
0.34432071 0.65830612 0.76200002
0.34668028 0.65830612 0.76200002
0.34903985 0.65830612 0.76200002
0.35139945 0.65830612 0.76200002
0.35375902 0.65830612 0.76200002
0.35658592 0.65917003 0.76300001
0.35894862 0.65917003 0.76300001
0.36178485 0.660034 0.76400006
0.36415061 0.660034 0.76400006
0.36651638 0.660034 0.76400006
0.36888215 0.660034 0.76400006
0.37173381 0.66089791 0.76500005
0.37410268 0.66089791 0.76500005
0.37647155 0.66089791 0.76500005
0.37884042 0.66089791 0.76500005
0.38170761 0.66176182 0.76600003
0.38407955 0.66176182 0.76600003
0.38645151 0.66176182 0.76600003
0.38882351 0.66176182 0.76600003
0.39119542 0.66176182 0.76600003
0.39408121 0.66262573 0.76700002
0.39645624 0.66262573 0.76700002
0.3993513 0.66348964 0.76800001
0.4017294 0.66348964 0.76800001
0.40515998 0.66521752 0.77000004
0.40754429 0.66521752 0.77000004
0.41046104 0.66608143 0.77100003
0.4128485 0.66608143 0.77100003
0.41523591 0.66608143 0.77100003
0.41762337 0.66608143 0.77100003
0.42055556 0.66694534 0.77200001
0.4229461 0.66694534 0.77200001
0.42588761 0.66780925 0.77300006
0.42828125 0.66780925 0.77300006
0.43123201 0.66867316 0.77400005
0.43362877 0.66867316 0.77400005
0.43658885 0.66953707 0.77500004
0.43898866 0.66953707 0.77500004
0.44195804 0.67040098 0.77600002
0.44436094 0.67040098 0.77600002
0.44676387 0.67040098 0.77600002
0.45032445 0.67212886 0.77800006
0.45273358 0.67212886 0.77800006
0.45631269 0.67385668 0.78000003
0.45872802 0.67385668 0.78000003
0.46114334 0.67385668 0.78000003
0.46355864 0.67385668 0.78000003
0.46597397 0.67385668 0.78000003
0.46838927 0.67385668 0.78000003
0.4708046 0.67385668 0.78000003
0.47321987 0.67385668 0.78000003
0.47563523 0.67385668 0.78000003
0.47805056 0.67385668 0.78000003
0.48108181 0.67472059 0.78100002
0.48350024 0.67472059 0.78100002
0.48591861 0.67472059 0.78100002
0.48833704 0.67472059 0.78100002
0.49075544 0.67472059 0.78100002
0.49317387 0.67472059 0.78100002
0.49559224 0.67472059 0.78100002
0.49864838 0.67558455 0.78200006
0.5010699 0.67558455 0.78200006
0.50349134 0.67558455 0.78200006
0.5059129 0.67558455 0.78200006
0.50963444 0.67731237 0.78400004
0.51206219 0.67731237 0.78400004
0.51448983 0.67731237 0.78400004
0.51691759 0.67731237 0.78400004
0.51934522 0.67731237 0.78400004
0.52177292 0.67731237 0.78400004
0.52486926 0.67817628 0.78500003
0.52730006 0.67817628 0.78500003
0.52973086 0.67817628 0.78500003
0.53216165 0.67817628 0.78500003
0.53459245 0.67817628 0.78500003
0.53702325 0.67817628 0.78500003
0.53945404 0.67817628 0.78500003
0.54188478 0.67817628 0.78500003
0.54500902 0.67904019 0.78600001
0.54813945 0.6799041 0.78700006
0.55057639 0.6799041 0.78700006
0.55371612 0.68076801 0.78800005
0.55615616 0.68076801 0.78800005
0.55859625 0.68076801 0.78800005
0.56103629 0.68076801 0.78800005
0.56490654 0.68249583 0.79000002
0.56735283 0.68249583 0.79000002
0.56979913 0.68249583 0.79000002
0.57224542 0.68249583 0.79000002
0.57469165 0.68249583 0.79000002
0.57713795 0.68249583 0.79000002
0.57958418 0.68249583 0.79000002
0.58203048 0.68249583 0.79000002
0.58447677 0.68249583 0.79000002
0.58692306 0.68249583 0.79000002
0.59011537 0.68335974 0.79100001
0.5925647 0.68335974 0.79100001
0.5950141 0.68335974 0.79100001
0.5982188 0.68422371 0.79200006
0.60067129 0.68422371 0.79200006
0.60312378 0.68422371 0.79200006
0.60557628 0.68422371 0.79200006
0.60879642 0.68508762 0.79300004
0.61125201 0.68508762 0.79300004
0.61448145 0.68595153 0.79400003
0.61694014 0.68595153 0.79400003
0.62173909 0.68854332 0.79700005
0.62420702 0.68854332 0.79700005
0.62746131 0.68940723 0.79800004
0.62993234 0.68940723 0.79800004
0.63478088 0.69199902 0.80100006
0.63726121 0.69199902 0.80100006
0.64054018 0.69286293 0.80200005
0.64302367 0.69286293 0.80200005
0.64631194 0.69372684 0.80300003
0.64960647 0.69459069 0.80400002
0.65209603 0.69459069 0.80400002
0.65539992 0.69545466 0.80500007
0.65789258 0.69545466 0.80500007
0.66038537 0.69545466 0.80500007
0.6628781 0.69545466 0.80500007
0.6670239 0.69718248 0.80700004
0.66952282 0.69718248 0.80700004
0.67202169 0.69718248 0.80700004
0.67452067 0.69718248 0.80700004
0.67701954 0.69718248 0.80700004
0.67951846 0.69718248 0.80700004
0.68201739 0.69718248 0.80700004
0.68451631 0.69718248 0.80700004
0.68701524 0.69718248 0.80700004
0.68951416 0.69718248 0.80700004
0.69201308 0.69718248 0.80700004
0.69279081 0.69545466 0.80500007
0.69528353 0.69545466 0.80500007
0.69690937 0.69459069 0.80400002
0.69939905 0.69459069 0.80400002
0.70101565 0.69372684 0.80300003
0.70350218 0.69372684 0.80300003
0.70598876 0.69372684 0.80300003
0.70759296 0.69286293 0.80200005
0.71007645 0.69286293 0.80200005
0.71255988 0.69286293 0.80200005
0.71504331 0.69286293 0.80200005
0.71752673 0.69286293 0.80200005
0.72001016 0.69286293 0.80200005
0.72249365 0.69286293 0.80200005
0.72497708 0.69286293 0.80200005
0.7274605 0.69286293 0.80200005
0.72994393 0.69286293 0.80200005
0.73242736 0.69286293 0.80200005
0.73491079 0.69286293 0.80200005
0.73739427 0.69286293 0.80200005
0.73987764 0.69286293 0.80200005
0.74236113 0.69286293 0.80200005
0.74484456 0.69286293 0.80200005
0.74732798 0.69286293 0.80200005
0.74981141 0.69286293 0.80200005
0.75229484 0.69286293 0.80200005
0.75477833 0.69286293 0.80200005
0.75726169 0.69286293 0.80200005
0.75974518 0.69286293 0.80200005
0.76222861 0.69286293 0.80200005
0.76471204 0.69286293 0.80200005
0.76719552 0.69286293 0.80200005
0.7687192 0.69199902 0.80100006
0.77119958 0.69199902 0.80100006
0.77367991 0.69199902 0.80100006
0.77616024 0.69199902 0.80100006
0.77864057 0.69199902 0.80100006
-0.63723278 0.55055481 0.63500005
-0.63526642 0.55055481 0.63500005
-0.63330013 0.55055481 0.63500005
-0.63232803 0.55142182 0.63600004
-0.63035858 0.55142182 0.63600004
-0.62838924 0.55142182 0.63600004
-0.62641978 0.55142182 0.63600004
-0.62445039 0.55142182 0.63600004
-0.62248099 0.55142182 0.63600004
-0.62051153 0.55142182 0.63600004
-0.6195147 0.55228883 0.63700002
-0.61754221 0.55228883 0.63700002
-0.61556971 0.55228883 0.63700002
-0.61359715 0.55228883 0.63700002
-0.61162466 0.55228883 0.63700002
-0.60965216 0.55228883 0.63700002
-0.60863358 0.55315584 0.63800001
-0.60665804 0.55315584 0.63800001
-0.60468239 0.55315584 0.63800001
-0.60270685 0.55315584 0.63800001
-0.60167283 0.55402285 0.63900006
-0.59969413 0.55402285 0.63900006
-0.59771544 0.55402285 0.63900006
-0.59573674 0.55402285 0.63900006
-0.59468722 0.55488986 0.64000005
-0.59270543 0.55488986 0.64000005
-0.59164667 0.55575687 0.64100003
-0.58966172 0.55575687 0.64100003
-0.58767688 0.55575687 0.64100003
-0.58660567 0.55662388 0.64200002
-0.58461767 0.55662388 0.64200002
-0.58262968 0.55662388 0.64200002
-0.58064169 0.55662388 0.64200002
-0.57865369 0.55662388 0.64200002
-0.5766657 0.55662388 0.64200002
-0.57467777 0.55662388 0.64200002
-0.57268977 0.55662388 0.64200002
-0.57159072 0.55749089 0.64300001
-0.56959963 0.55749089 0.64300001
-0.56760854 0.55749089 0.64300001
-0.56561744 0.55749089 0.64300001
-0.56362635 0.55749089 0.64300001
-0.56163526 0.55749089 0.64300001
-0.56051457 0.55835795 0.64400005
-0.55765313 0.55749089 0.64300001
-0.55566204 0.55749089 0.64300001
-0.55367094 0.55749089 0.64300001
-0.55167985 0.55749089 0.64300001
-0.55139852 0.55922496 0.64500004
-0.54940128 0.55922496 0.64500004
-0.54740399 0.55922496 0.64500004
-0.54540676 0.55922496 0.64500004
-0.54340947 0.55922496 0.64500004
-0.54057282 0.55835795 0.64400005
-0.53857857 0.55835795 0.64400005
-0.53658444 0.55835795 0.64400005
-0.53459024 0.55835795 0.64400005
-0.53259605 0.55835795 0.64400005
-0.53060186 0.55835795 0.64400005
-0.52860767 0.55835795 0.64400005
-0.52743125 0.55922496 0.64500004
-0.52543396 0.55922496 0.64500004
-0.52424818 0.56009197 0.64600003
-0.52224779 0.56009197 0.64600003
-0.52024746 0.56009197 0.64600003
-0.51904929 0.56095898 0.64700001
-0.5170458 0.56095898 0.64700001
-0.51583838 0.56182593 0.648
-0.51383179 0.56182593 0.648
-0.51182526 0.56182593 0.648
-0.50981867 0.56182593 0.648
-0.50859582 0.562693 0.64900005
-0.50658613 0.562693 0.64900005
-0.5045765 0.562693 0.64900005
-0.50256681 0.562693 0.64900005
-0.50132841 0.56356001 0.65000004
-0.49931568 0.56356001 0.65000004
-0.49730289 0.56356001 0.65000004
-0.49529016 0.56356001 0.65000004
-0.49707183 0.56789511 0.65500003
-0.49504361 0.56789511 0.65500003
-0.49301535 0.56789511 0.65500003
-0.49098709 0.56789511 0.65500003
-0.48895887 0.56789511 0.65500003
-0.48693061 0.56789511 0.65500003
-0.48490238 0.56789511 0.65500003
-0.48287413 0.56789511 0.65500003
-0.4808459 0.56789511 0.65500003
-0.47881764 0.56789511 0.65500003
-0.47678941 0.56789511 0.65500003
-0.47548598 0.56876206 0.65600002
-0.47345462 0.56876206 0.65600002
-0.47214192 0.56962907 0.65700001
-0.47010747 0.56962907 0.65700001
-0.46807304 0.56962907 0.65700001
-0.46603861 0.56962907 0.65700001
-0.46471047 0.57049614 0.65800005
-0.46267292 0.57049614 0.65800005
-0.46133545 0.57136315 0.65900004
-0.45999175 0.57223016 0.66000003
-0.457948 0.57223016 0.66000003
-0.4559043 0.57223016 0.66000003
-0.45386055 0.57223016 0.66000003
-0.45250142 0.57309717 0.66100001
-0.45045459 0.57309717 0.66100001
-0.44976455 0.57483125 0.66300005
-0.44771153 0.57483125 0.66300005
-0.4456585 0.57483125 0.66300005
-0.44360551 0.57483125 0.66300005
-0.44221845 0.57569826 0.66400003
-0.44016236 0.57569826 0.66400003
-0.43810624 0.57569826 0.66400003
-0.43605015 0.57569826 0.66400003
-0.433994 0.57569826 0.66400003
-0.43128741 0.57483125 0.66300005
-0.42923439 0.57483125 0.66300005
-0.42718136 0.57483125 0.66300005
-0.42512837 0.57483125 0.66300005
-0.42307532 0.57483125 0.66300005
-0.42102233 0.57483125 0.66300005
-0.4189693 0.57483125 0.66300005
-0.41691631 0.57483125 0.66300005
-0.41486326 0.57483125 0.66300005
-0.41281027 0.57483125 0.66300005
-0.41075724 0.57483125 0.66300005
-0.40870422 0.57483125 0.66300005
-0.40665123 0.57483125 0.66300005
-0.40459818 0.57483125 0.66300005
-0.40315235 0.57569826 0.66400003
-0.40109622 0.57569826 0.66400003
-0.39904013 0.57569826 0.66400003
-0.39698398 0.57569826 0.66400003
-0.39552265 0.57656521 0.66500002
-0.39346343 0.57656521 0.66500002
-0.39140421 0.57656521 0.66500002
-0.38934502 0.57656521 0.66500002
-0.3872858 0.57656521 0.66500002
-0.38522661 0.57656521 0.66500002
-0.38316739 0.57656521 0.66500002
-0.38110819 0.57656521 0.66500002
-0.37904897 0.57656521 0.66500002
-0.37698975 0.57656521 0.66500002
-0.37493056 0.57656521 0.66500002
-0.37287134 0.57656521 0.66500002
-0.37081215 0.57656521 0.66500002
-0.36930743 0.57743222 0.66600001
-0.36724514 0.57743222 0.66600001
-0.36518282 0.57743222 0.66600001
-0.36312056 0.57743222 0.66600001
-0.36105824 0.57743222 0.66600001
-0.35899591 0.57743222 0.66600001
-0.35800549 0.57916629 0.66800004
-0.355937 0.57916629 0.66800004
-0.35492799 0.58090031 0.67000002
-0.3539066 0.58263439 0.67200005
-0.35182574 0.58263439 0.67200005
-0.35026526 0.5835014 0.67300004
-0.34818131 0.5835014 0.67300004
-0.34661156 0.58436835 0.67400002
-0.34452447 0.58436835 0.67400002
-0.34294549 0.58523536 0.67500001
-0.3408553 0.58523536 0.67500001
-0.33926705 0.58610243 0.67600006
-0.33717376 0.58610243 0.67600006
-0.33557615 0.58696944 0.67700005
-0.33347979 0.58696944 0.67700005
-0.33187291 0.58783644 0.67800003
-0.32977346 0.58783644 0.67800003
-0.32767397 0.58783644 0.67800003
-0.32557452 0.58783644 0.67800003
-0.32395217 0.58870345 0.67900002
-0.32184958 0.58870345 0.67900002
-0.31927612 0.58783644 0.67800003
-0.31717664 0.58783644 0.67800003
-0.31507719 0.58783644 0.67800003
-0.31343934 0.58870345 0.67900002
-0.31133679 0.58870345 0.67900002
-0.30968964 0.58957046 0.68000001
-0.30758399 0.58957046 0.68000001
-0.3054783 0.58957046 0.68000001
-0.30337265 0.58957046 0.68000001
-0.30171007 0.59043753 0.68100005
-0.29960132 0.59043753 0.68100005
-0.29749256 0.59043753 0.68100005
-0.29538381 0.59043753 0.68100005
-0.29327506 0.59043753 0.68100005
-0.29116631 0.59043753 0.68100005
-0.28948203 0.59130454 0.68200004
-0.28737015 0.59130454 0.68200004
-0.28525829 0.59130454 0.68200004
-0.28314644 0.59130454 0.68200004
-0.28103462 0.59130454 0.68200004
-0.27933174 0.59217149 0.68300003
-0.27721679 0.59217149 0.68300003
-0.27550462 0.5930385 0.68400002
-0.27338657 0.5930385 0.68400002
-0.27126852 0.5930385 0.68400002
-0.26915047 0.5930385 0.68400002
-0.26742285 0.59390557 0.68500006
-0.2653017 0.59390557 0.68500006
-0.26318058 0.59390557 0.68500006
-0.26105943 0.59390557 0.68500006
-0.25893831 0.59390557 0.68500006
-0.25681716 0.59390557 0.68500006
-0.25469604 0.59390557 0.68500006
-0.25220615 0.5930385 0.68400002
-0.2500881 0.5930385 0.68400002
-0.24797004 0.5930385 0.68400002
-0.24585201 0.5930385 0.68400002
-0.24373397 0.5930385 0.68400002
-0.24161594 0.5930385 0.68400002
-0.23949789 0.5930385 0.68400002
-0.23737985 0.5930385 0.68400002
-0.23526178 0.5930385 0.68400002
-0.23314375 0.5930385 0.68400002
-0.23102571 0.5930385 0.68400002
-0.22890766 0.5930385 0.68400002
-0.2271212 0.59390557 0.68500006
-0.22500007 0.59390557 0.68500006
-0.22287893 0.59390557 0.68500006
-0.2207578 0.59390557 0.68500006
-0.21895583 0.59477258 0.68600005
-0.21683158 0.59477258 0.68600005
-0.21470734 0.59477258 0.68600005
-0.21258311 0.59477258 0.68600005
-0.21076566 0.59563959 0.68700004
-0.20863833 0.59563959 0.68700004
-0.20681159 0.5965066 0.68800002
-0.20468116 0.5965066 0.68800002
-0.20255074 0.5965066 0.68800002
-0.20071159 0.5973736 0.68900001
-0.19857807 0.5973736 0.68900001
-0.19644454 0.5973736 0.68900001
-0.19431102 0.5973736 0.68900001
-0.1921775 0.5973736 0.68900001
-0.19004397 0.5973736 0.68900001
-0.18791045 0.5973736 0.68900001
-0.18577693 0.5973736 0.68900001
-0.18390995 0.59824067 0.69000006
-0.18177332 0.59824067 0.69000006
-0.1796367 0.59824067 0.69000006
-0.17750007 0.59824067 0.69000006
-0.17536345 0.59824067 0.69000006
-0.17322683 0.59824067 0.69000006
-0.17109022 0.59824067 0.69000006
-0.16895358 0.59824067 0.69000006
-0.16705872 0.59910768 0.69100004
-0.16539633 0.60084164 0.69300002
-0.16325043 0.60084164 0.69300002
-0.16133697 0.60170865 0.69400001
-0.15918797 0.60170865 0.69400001
-0.15726526 0.60257572 0.69500005
-0.15511316 0.60257572 0.69500005
-0.15296105 0.60257572 0.69500005
-0.15080893 0.60257572 0.69500005
-0.14908461 0.60430974 0.69700003
-0.14692633 0.60430974 0.69700003
-0.14497572 0.60517675 0.69800001
-0.14281432 0.60517675 0.69800001
-0.14085445 0.60604382 0.69900006
-0.13868997 0.60604382 0.69900006
-0.1369161 0.60777777 0.70100003
-0.1347454 0.60777777 0.70100003
-0.13257472 0.60777777 0.70100003
-0.13059007 0.60864478 0.70200002
-0.12841628 0.60864478 0.70200002
-0.12642233 0.60951179 0.70300001
-0.12424545 0.60951179 0.70300001
-0.12224222 0.61037886 0.70400006
-0.12006225 0.61037886 0.70400006
-0.11788227 0.61037886 0.70400006
-0.11570229 0.61037886 0.70400006
-0.11368357 0.61124587 0.70500004
-0.11150051 0.61124587 0.70500004
-0.10931744 0.61124587 0.70500004
-0.10713436 0.61124587 0.70500004
-0.10495129 0.61124587 0.70500004
-0.10276822 0.61124587 0.70500004
-0.10058516 0.61124587 0.70500004
-0.098402075 0.61124587 0.70500004
-0.096355483 0.61211288 0.70600003
-0.094169319 0.61211288 0.70600003
-0.091983154 0.61211288 0.70600003
-0.089924172 0.61297989 0.70700002
-0.087734908 0.61297989 0.70700002
-0.085666642 0.6138469 0.708
-0.083474278 0.6138469 0.708
-0.081281923 0.6138469 0.708
-0.07908956 0.6138469 0.708
-0.077005818 0.61471391 0.70900005
-0.074810356 0.61471391 0.70900005
-0.072614908 0.61471391 0.70900005
-0.070419446 0.61471391 0.70900005
-0.068320215 0.61558092 0.71000004
-0.06612166 0.61558092 0.71000004
-0.064013138 0.61644793 0.71100003
-0.061811492 0.61644793 0.71100003
-0.059693675 0.61731493 0.71200001
-0.057488933 0.61731493 0.71200001
-0.055361833 0.618182 0.71300006
-0.053228542 0.61904901 0.71400005
-0.051017597 0.61904901 0.71400005
-0.048875015 0.61991602 0.71500003
-0.046660978 0.61991602 0.71500003
-0.044509105 0.62078303 0.71600002
-0.042291973 0.62078303 0.71600002
-0.040130809 0.62165004 0.71700001
-0.037910581 0.62165004 0.71700001
-0.035690352 0.62165004 0.71700001
-0.03347012 0.62165004 0.71700001
-0.031249892 0.62165004 0.71700001
-0.029029662 0.62165004 0.71700001
-0.026809432 0.62165004 0.71700001
-0.024589203 0.62165004 0.71700001
-0.022368973 0.62165004 0.71700001
-0.020148745 0.62165004 0.71700001
-0.017928515 0.62165004 0.71700001
-0.015708286 0.62165004 0.71700001
-0.013488056 0.62165004 0.71700001
-0.011267827 0.62165004 0.71700001
-0.0090475976 0.62165004 0.71700001
-0.0068273679 0.62165004 0.71700001
-0.0046071387 0.62165004 0.71700001
-0.0023869092 0.62165004 0.71700001
-0.00016667982 0.62165004 0.71700001
0.0020535495 0.62165004 0.71700001
0.0042737788 0.62165004 0.71700001
0.006494008 0.62165004 0.71700001
0.0087142373 0.62165004 0.71700001
0.010934467 0.62165004 0.71700001
0.013154697 0.62165004 0.71700001
0.015396371 0.62251705 0.71800005
0.017619697 0.62251705 0.71800005
0.019870659 0.62338406 0.71900004
0.022097081 0.62338406 0.71900004
0.024357334 0.62425107 0.72000003
0.026586853 0.62425107 0.72000003
0.028816372 0.62425107 0.72000003
0.031045889 0.62425107 0.72000003
0.033275407 0.62425107 0.72000003
0.035554241 0.62511808 0.72100002
0.037786856 0.62511808 0.72100002
0.040019471 0.62511808 0.72100002
0.042252086 0.62511808 0.72100002
0.044484701 0.62511808 0.72100002
0.046652526 0.62425107 0.72000003
0.048882045 0.62425107 0.72000003
0.05111156 0.62425107 0.72000003
0.053341083 0.62425107 0.72000003
0.055570599 0.62425107 0.72000003
0.057800122 0.62425107 0.72000003
0.060029637 0.62425107 0.72000003
0.06225916 0.62425107 0.72000003
0.064488679 0.62425107 0.72000003
0.066810861 0.62511808 0.72100002
0.069043472 0.62511808 0.72100002
0.071276091 0.62511808 0.72100002
0.073508702 0.62511808 0.72100002
0.075846381 0.62598515 0.72200006
0.078082092 0.62598515 0.72200006
0.080317803 0.62598515 0.72200006
0.08266785 0.62685215 0.72300005
0.084906667 0.62685215 0.72300005
0.08714547 0.62685215 0.72300005
0.08938428 0.62685215 0.72300005
0.09174981 0.62771916 0.72400004
0.093861893 0.62685215 0.72300005
0.096100703 0.62685215 0.72300005
0.09833952 0.62685215 0.72300005
0.10057832 0.62685215 0.72300005
0.10267492 0.62598515 0.72200006
0.10491063 0.62598515 0.72200006
0.10699794 0.62511808 0.72100002
0.10923056 0.62511808 0.72100002
0.11146317 0.62511808 0.72100002
0.11369579 0.62511808 0.72100002
0.11592841 0.62511808 0.72100002
0.11816102 0.62511808 0.72100002
0.12039363 0.62511808 0.72100002
0.12262625 0.62511808 0.72100002
0.12485887 0.62511808 0.72100002
0.12709148 0.62511808 0.72100002
0.12932409 0.62511808 0.72100002
0.1315567 0.62511808 0.72100002
0.13397489 0.62598515 0.72200006
0.13621062 0.62598515 0.72200006
0.13863808 0.62685215 0.72300005
0.14087687 0.62685215 0.72300005
0.14331363 0.62771916 0.72400004
0.14555554 0.62771916 0.72400004
0.14779745 0.62771916 0.72400004
0.15003935 0.62771916 0.72400004
0.15249158 0.62858617 0.72500002
0.15473659 0.62858617 0.72500002
0.15698159 0.62858617 0.72500002
0.1592266 0.62858617 0.72500002
0.1616943 0.62945318 0.72600001
0.16394241 0.62945318 0.72600001
0.16641943 0.63032019 0.72700006
0.16890264 0.6311872 0.72800004
0.17115693 0.6311872 0.72800004
0.17388763 0.63292122 0.73000002
0.1761481 0.63292122 0.73000002
0.17865297 0.63378823 0.73100001
0.18091656 0.63378823 0.73100001
0.1839319 0.63638932 0.73400003
0.18620478 0.63638932 0.73400003
0.18899122 0.63812333 0.73600006
0.19127029 0.63812333 0.73600006
0.19381233 0.63899034 0.73700005
0.19609448 0.63899034 0.73700005
0.19918413 0.64159137 0.74000001
0.20147559 0.64159137 0.74000001
0.2040424 0.64245844 0.74100006
0.2066154 0.64332545 0.74200004
0.20891304 0.64332545 0.74200004
0.21121071 0.64332545 0.74200004
0.21350835 0.64332545 0.74200004
0.21609683 0.64419246 0.74300003
0.21839757 0.64419246 0.74300003
0.22099534 0.64505947 0.74400002
0.22329918 0.64505947 0.74400002
0.22590625 0.64592648 0.74500006
0.22821318 0.64592648 0.74500006
0.23052011 0.64592648 0.74500006
0.23282707 0.64592648 0.74500006
0.23513399 0.64592648 0.74500006
0.23744093 0.64592648 0.74500006
0.23974785 0.64592648 0.74500006
0.24205479 0.64592648 0.74500006
0.24436171 0.64592648 0.74500006
0.24666865 0.64592648 0.74500006
0.24897557 0.64592648 0.74500006
0.25128254 0.64592648 0.74500006
0.25358945 0.64592648 0.74500006
0.25589639 0.64592648 0.74500006
0.25820333 0.64592648 0.74500006
0.26051024 0.64592648 0.74500006
0.2624644 0.64505947 0.74400002
0.26476821 0.64505947 0.74400002
0.26707205 0.64505947 0.74400002
0.26937589 0.64505947 0.74400002
0.27167976 0.64505947 0.74400002
0.27398357 0.64505947 0.74400002
0.27628741 0.64505947 0.74400002
0.27859125 0.64505947 0.74400002
0.28089508 0.64505947 0.74400002
0.28357959 0.64592648 0.74500006
0.2858865 0.64592648 0.74500006
0.28819343 0.64592648 0.74500006
0.2905004 0.64592648 0.74500006
0.29320034 0.64679348 0.74600005
0.29551038 0.64679348 0.74600005
0.29821962 0.64766049 0.74700004
0.30093506 0.6485275 0.74800003
0.30325127 0.6485275 0.74800003
0.3055675 0.6485275 0.74800003
0.30788371 0.6485275 0.74800003
0.31061465 0.64939451 0.74900001
0.31293398 0.64939451 0.74900001
0.31609511 0.65112859 0.75100005
0.31842062 0.65112859 0.75100005
0.32117322 0.6519956 0.75200003
0.32350183 0.6519956 0.75200003
0.3262637 0.65286261 0.75300002
0.3285954 0.65286261 0.75300002
0.33136657 0.65372962 0.75400001
0.3337014 0.65372962 0.75400001
0.33603621 0.65372962 0.75400001
0.33837101 0.65372962 0.75400001
0.34115767 0.65459663 0.75500005
0.34349558 0.65459663 0.75500005
0.34583348 0.65459663 0.75500005
0.34863251 0.65546364 0.75600004
0.35097352 0.65546364 0.75600004
0.35331452 0.65546364 0.75600004
0.35565552 0.65546364 0.75600004
0.35847005 0.65633065 0.75700003
0.36081412 0.65633065 0.75700003
0.36315823 0.65633065 0.75700003
0.36550233 0.65633065 0.75700003
0.3678464 0.65633065 0.75700003
0.3701905 0.65633065 0.75700003
0.3730267 0.65719765 0.75800002
0.3753739 0.65719765 0.75800002
0.3777211 0.65719765 0.75800002
0.38006824 0.65719765 0.75800002
0.38292 0.65806472 0.75900006
0.3852703 0.65806472 0.75900006
0.38762057 0.65806472 0.75900006
0.38997087 0.65806472 0.75900006
0.392838 0.65893173 0.76000005
0.39623138 0.66066575 0.76200002
0.39859092 0.66066575 0.76200002
0.40147668 0.66153276 0.76300001
0.40383932 0.66153276 0.76300001
0.40620202 0.66153276 0.76300001
0.40856472 0.66153276 0.76300001
0.41092736 0.66153276 0.76300001
0.41329005 0.66153276 0.76300001
0.41619748 0.66239977 0.76400006
0.41856328 0.66239977 0.76400006
0.42147997 0.66326678 0.76500005
0.42384884 0.66326678 0.76500005
0.42677483 0.66413379 0.76600003
0.4291468 0.66413379 0.76600003
0.43208212 0.6650008 0.76700002
0.43445715 0.6650008 0.76700002
0.43740174 0.66586781 0.76800001
0.43977988 0.66586781 0.76800001
0.44330952 0.66760188 0.77000004
0.44627267 0.66846889 0.77100003
0.44866014 0.66846889 0.77100003
0.45163256 0.6693359 0.77200001
0.45402312 0.6693359 0.77200001
0.4570049 0.67020291 0.77300006
0.45939851 0.67020291 0.77300006
0.46179217 0.67020291 0.77300006
0.4641858 0.67020291 0.77300006
0.46718302 0.67106992 0.77400005
0.46957976 0.67106992 0.77400005
0.47197649 0.67106992 0.77400005
0.47437325 0.67106992 0.77400005
0.47738594 0.67193693 0.77500004
0.47978577 0.67193693 0.77500004
0.48218557 0.67193693 0.77500004
0.48458543 0.67193693 0.77500004
0.48698524 0.67193693 0.77500004
0.4893851 0.67193693 0.77500004
0.4917849 0.67193693 0.77500004
0.49418473 0.67193693 0.77500004
0.49658459 0.67193693 0.77500004
0.49962825 0.67280394 0.77600002
0.50203121 0.67280394 0.77600002
0.50443411 0.67280394 0.77600002
0.50683701 0.67280394 0.77600002
0.50923991 0.67280394 0.77600002
0.51164287 0.67280394 0.77600002
0.51404577 0.67280394 0.77600002
0.51644874 0.67280394 0.77600002
0.5188517 0.67280394 0.77600002
0.5212546 0.67280394 0.77600002
0.5236575 0.67280394 0.77600002
0.5260604 0.67280394 0.77600002
0.52982539 0.67453802 0.77800006
0.53223449 0.67453802 0.77800006
0.53464365 0.67453802 0.77800006
0.53705275 0.67453802 0.77800006
0.54015523 0.67540503 0.77900004
0.54256749 0.67540503 0.77900004
0.54567927 0.67627203 0.78000003
0.54809457 0.67627203 0.78000003
0.55050987 0.67627203 0.78000003
0.55363411 0.67713898 0.78100002
0.55605245 0.67713898 0.78100002
0.5584709 0.67713898 0.78100002
0.5608893 0.67713898 0.78100002
0.56402904 0.67800605 0.78200006
0.56645054 0.67800605 0.78200006
0.56887203 0.67800605 0.78200006
0.57129353 0.67800605 0.78200006
0.57371503 0.67800605 0.78200006
0.57613653 0.67800605 0.78200006
0.57855803 0.67800605 0.78200006
0.58097953 0.67800605 0.78200006
0.58340108 0.67800605 0.78200006
0.58582258 0.67800605 0.78200006
0.58824408 0.67800605 0.78200006
0.59066558 0.67800605 0.78200006
0.5946039 0.67974007 0.78400004
0.59703159 0.67974007 0.78400004
0.59945929 0.67974007 0.78400004
0.6026547 0.68060708 0.78500003
0.60508549 0.68060708 0.78500003
0.60906416 0.68234116 0.78700006
